700556.451	9327013.719	-7.428
704142.942	9326114.844	-7.429
704142.942	9326092.822	-7.429
702557.398	9325983.716	-7.429
702559.4	9326004.736	-7.429
702556.397	9326045.776	-7.43
702960.791	9325934.668	-7.431
702959.79	9325912.647	-7.432
702958.789	9325890.625	-7.432
703360.18	9325945.679	-7.434
703360.18	9325924.659	-7.434
703361.181	9325902.637	-7.434
705419.184	9326644.359	-7.435
705419.184	9326664.379	-7.435
705419.184	9326684.398	-7.435
705420.185	9326705.419	-7.435
704234.031	9326126.855	-7.436
704233.03	9326147.876	-7.436
704234.031	9326169.897	-7.436
704235.032	9326191.919	-7.437
705036.812	9326433.154	-7.438
705036.812	9326412.133	-7.438
705037.813	9326391.113	-7.438
704933.712	9326375.097	-7.442
706033.782	9326993.699	-7.443
706033.782	9327015.721	-7.443
706032.781	9327035.74	-7.443
706030.78	9327057.762	-7.443
702760.596	9325947.681	-7.443
701955.813	9326276.001	-7.443
701955.813	9326297.021	-7.443
703940.745	9326002.735	-7.444
703941.746	9326025.757	-7.444
702757.593	9325991.724	-7.444
702756.592	9326011.743	-7.444
701957.815	9326381.103	-7.444
703940.745	9326045.776	-7.445
703941.746	9326067.798	-7.445
702755.591	9326053.784	-7.445
705922.674	9326991.697	-7.448
705924.676	9326971.678	-7.448
705925.677	9326950.657	-7.448
705926.678	9326930.638	-7.448
701754.617	9326435.155	-7.452
701755.618	9326455.175	-7.452
701761.624	9326518.236	-7.453
704403.195	9326265.991	-7.457
704424.216	9326265.991	-7.457
704446.237	9326267.993	-7.457
704490.28	9326267.993	-7.457
705327.095	9326677.391	-7.458
705326.094	9326657.372	-7.458
705327.095	9326638.353	-7.458
704841.622	9326373.095	-7.458
701554.422	9326537.255	-7.458
701551.419	9326557.274	-7.458
704512.301	9326266.992	-7.458
704534.323	9326265.991	-7.458
704555.343	9326264.99	-7.458
704620.407	9326268.994	-7.458
704641.427	9326269.995	-7.458
704663.449	9326268.994	-7.458
701548.416	9326598.314	-7.459
701548.416	9326620.336	-7.459
701546.414	9326641.356	-7.46
701339.213	9326759.471	-7.461
701351.224	9326776.488	-7.461
701318.192	9326750.462	-7.462
704633.419	9326386.108	-7.464
704634.42	9326318.041	-7.465
704629.415	9326296.02	-7.465
703049.878	9325929.663	-7.468
703051.88	9325948.682	-7.468
703049.878	9325989.722	-7.469
702742.579	9328013.692	-7.469
703258.081	9325920.655	-7.472
703260.082	9325938.672	-7.472
703258.081	9325959.693	-7.472
705832.587	9326840.55	-7.473
705833.588	9326862.572	-7.473
705833.588	9326928.636	-7.474
700854.741	9326961.668	-7.474
700855.742	9326983.689	-7.474
703750.56	9325958.692	-7.475
703751.561	9325981.714	-7.475
703750.56	9326003.736	-7.475
705836.591	9326969.676	-7.475
704437.228	9326302.026	-7.477
704438.229	9326279.003	-7.477
704439.23	9326255.981	-7.477
704440.231	9326234.961	-7.477
702467.311	9326098.828	-7.477
702465.309	9326077.808	-7.477
702456.3	9326012.744	-7.478
704736.52	9326287.011	-7.479
704737.521	9326308.032	-7.479
704738.522	9326328.051	-7.479
704738.522	9326348.071	-7.48
703255.078	9326671.385	-7.48
703546.361	9326023.755	-7.483
703546.361	9326045.776	-7.483
701152.03	9326868.577	-7.485
701148.027	9326825.535	-7.485
702766.602	9323945.732	-7.486
702062.917	9326326.049	-7.488
701076.957	9326866.575	-7.488
701077.958	9326887.596	-7.488
701075.956	9326907.615	-7.488
705219.99	9326575.292	-7.489
705611.371	9326702.416	-7.491
705605.365	9326723.436	-7.491
705602.363	9326743.456	-7.491
705602.363	9326786.497	-7.491
705608.368	9326807.518	-7.491
704038.841	9326165.893	-7.492
704039.842	9326145.874	-7.493
704043.845	9326105.835	-7.493
702157.009	9326208.935	-7.493
705148.921	9326111.841	-7.494
705144.917	9326133.862	-7.494
705140.913	9326176.904	-7.494
702160.012	9326057.788	-7.494
704045.847	9325910.645	-7.496
704338.132	9326189.917	-7.497
704337.131	9326233.96	-7.497
704334.128	9326255.981	-7.497
701849.71	9326509.228	-7.497
701666.531	9326618.334	-7.497
701667.532	9326596.312	-7.497
701229.105	9326835.545	-7.497
701850.711	9326402.123	-7.498
701671.536	9326575.292	-7.498
701274.149	9326797.508	-7.498
701273.148	9326776.488	-7.498
700664.556	9327011.717	-7.5
700663.555	9327033.738	-7.5
700964.848	9326927.635	-7.507
700962.846	9326906.614	-7.507
700961.845	9326884.593	-7.507
705524.287	9326800.511	-7.509
705524.287	9326780.492	-7.509
701446.317	9326686.4	-7.511
701448.319	9326644.359	-7.511
705734.491	9326882.591	-7.515
705733.49	9326859.569	-7.515
704529.318	9326289.013	-7.515
702254.103	9326232.959	-7.515
702251.1	9326169.897	-7.515
702253.102	9326145.874	-7.515
702254.103	9326123.852	-7.515
704527.316	9326331.054	-7.516
704531.32	9326372.094	-7.516
702764.6	9323924.712	-7.517
702051.906	9326287.011	-7.522
702071.926	9326287.011	-7.522
703161.987	9326053.784	-7.523
702110.964	9326288.012	-7.523
702131.984	9326285.009	-7.523
702152.004	9326284.008	-7.523
702172.023	9326282.006	-7.523
703161.987	9325988.721	-7.524
703156.982	9325966.699	-7.524
703156.982	9325945.679	-7.524
702214.064	9326279.003	-7.524
703848.655	9326120.85	-7.525
703849.656	9326100.83	-7.525
703854.661	9326038.77	-7.525
702866.7	9326034.766	-7.525
702861.695	9326013.745	-7.525
702859.693	9325968.701	-7.525
701349.222	9326691.405	-7.525
703453.271	9326148.877	-7.526
703456.273	9326082.812	-7.527
703457.274	9326060.791	-7.527
703455.272	9326039.771	-7.527
703454.272	9325974.707	-7.527
704142.942	9326268.994	-7.528
702353.2	9326140.869	-7.528
702353.2	9326162.89	-7.528
702354.201	9326206.933	-7.528
700558.453	9327056.761	-7.528
704143.943	9326158.887	-7.529
702956.787	9326023.755	-7.53
702556.397	9326068.799	-7.53
702957.788	9325978.711	-7.531
702960.791	9325956.69	-7.531
702554.396	9326109.839	-7.531
702552.394	9326130.859	-7.531
702553.395	9326195.923	-7.532
703364.184	9326053.784	-7.533
703362.182	9326031.763	-7.533
703361.181	9325988.721	-7.534
705418.183	9326745.458	-7.536
704235.032	9326212.939	-7.537
704235.032	9326234.961	-7.537
704236.032	9326255.981	-7.537
705040.816	9326475.194	-7.537
705039.815	9326454.174	-7.538
704933.712	9326398.119	-7.542
704934.713	9326416.137	-7.542
704936.715	9326437.157	-7.542
706027.777	9327078.782	-7.543
706029.779	9327098.801	-7.543
702757.593	9325969.702	-7.543
702754.59	9326031.763	-7.544
701955.813	9326318.041	-7.544
701958.816	9326360.082	-7.544
703944.749	9326089.819	-7.545
703943.748	9326112.842	-7.545
703943.748	9326134.863	-7.545
703944.749	9326154.883	-7.545
702756.592	9326096.826	-7.545
701957.815	9326422.143	-7.545
701957.815	9326444.164	-7.545
705920.672	9327032.737	-7.548
705920.672	9327011.717	-7.548
701754.617	9326477.196	-7.552
701761.624	9326498.217	-7.552
701761.624	9326538.256	-7.553
701760.623	9326560.277	-7.553
702767.603	9323965.752	-7.555
704211.008	9326269.995	-7.556
704252.048	9326268.994	-7.556
704297.092	9326265.991	-7.556
704316.11	9326263.989	-7.556
704337.131	9326262.988	-7.556
705327.095	9326722.435	-7.557
704839.62	9326415.136	-7.557
704359.152	9326263.989	-7.557
704381.174	9326264.99	-7.557
705329.097	9326700.414	-7.558
704840.621	9326395.116	-7.558
702674.512	9323747.539	-7.559
701547.415	9326705.419	-7.561
704637.423	9326409.13	-7.564
704635.421	9326363.085	-7.564
704635.421	9326341.064	-7.564
703050.879	9325969.702	-7.569
703051.88	9326010.742	-7.569
703054.883	9326029.761	-7.569
702742.579	9328035.713	-7.569
703256.079	9325979.712	-7.572
703253.076	9326000.733	-7.572
703255.078	9326020.752	-7.573
705835.59	9326948.655	-7.574
703748.558	9326022.754	-7.575
703747.557	9326043.774	-7.575
703748.558	9326067.798	-7.575
703750.56	9326086.816	-7.575
703752.562	9326106.836	-7.575
705836.591	9326989.695	-7.575
700855.742	9327005.711	-7.575
705831.586	9327030.735	-7.576
704440.231	9326389.111	-7.576
704438.229	9326367.089	-7.576
704439.23	9326344.067	-7.576
702452.296	9326378.1	-7.576
704438.229	9326323.046	-7.577
702462.306	9326142.871	-7.577
702459.303	9326120.85	-7.577
704738.522	9326369.091	-7.58
704738.522	9326388.11	-7.58
700764.653	9327037.742	-7.58
700763.652	9327018.724	-7.58
700764.653	9326996.702	-7.58
703545.36	9326066.797	-7.584
703543.358	9326088.818	-7.584
703542.357	9326109.839	-7.584
703542.357	9326130.859	-7.584
701154.032	9326889.598	-7.585
701150.028	9326846.556	-7.585
702052.907	9326433.154	-7.587
702057.912	9326346.069	-7.588
702064.919	9326303.027	-7.588
702058.913	9326258.984	-7.589
701073.954	9326951.658	-7.589
705219.99	9326617.333	-7.59
702055.91	9326192.92	-7.59
702056.911	9326170.898	-7.59
704036.839	9326225.952	-7.591
705219.99	9326766.478	-7.591
704036.839	9326205.932	-7.592
704037.84	9326185.913	-7.592
705610.37	9326828.538	-7.592
705614.374	9326847.557	-7.592
705619.379	9326869.578	-7.592
704040.842	9326125.854	-7.593
702671.51	9323768.56	-7.593
702153.005	9326146.875	-7.593
702155.007	9326229.956	-7.593
702154.006	9326250.976	-7.593
704040.842	9326083.813	-7.594
705140.913	9326155.884	-7.594
705139.912	9326198.926	-7.594
701652.518	9326678.392	-7.596
704334.128	9326278.002	-7.597
704337.131	9326300.024	-7.597
701655.521	9326658.373	-7.597
701662.527	9326639.354	-7.597
701226.103	9326812.523	-7.597
701226.103	9326854.564	-7.597
704341.135	9326321.044	-7.598
701274.149	9326819.53	-7.598
700662.554	9327056.761	-7.6
700663.555	9327100.803	-7.601
702666.505	9326131.86	-7.604
702672.511	9326067.798	-7.605
702668.507	9326047.778	-7.605
702662.501	9326025.757	-7.606
702662.501	9326003.736	-7.606
700964.848	9326947.654	-7.607
705524.287	9326881.59	-7.609
705527.289	9326861.571	-7.609
705526.288	9326841.551	-7.609
705524.287	9326819.53	-7.609
703652.464	9326149.878	-7.61
703653.465	9326127.856	-7.61
703653.465	9326106.836	-7.61
701446.317	9326768.48	-7.61
701445.316	9326727.44	-7.61
701444.315	9326706.42	-7.61
701450.321	9326666.381	-7.611
705729.486	9326942.649	-7.614
705732.489	9326923.631	-7.615
705732.489	9326902.611	-7.615
702256.105	9326254.98	-7.615
704527.316	9326351.074	-7.616
704531.32	9326393.115	-7.616
704529.318	9326413.134	-7.616
703161.987	9326074.805	-7.623
703164.99	9326030.762	-7.623
702766.602	9326103.833	-7.623
703846.653	9326223.95	-7.624
703845.652	9326182.91	-7.624
703847.654	9326141.87	-7.624
703164.99	9326009.741	-7.624
702862.696	9326096.826	-7.624
702872.705	9326054.785	-7.624
702192.043	9326280.004	-7.624
702236.086	9326279.003	-7.624
702258.107	9326279.003	-7.624
701351.224	9326670.384	-7.625
701348.221	9326700.414	-7.625
702279.128	9326280.004	-7.625
703451.269	9326170.898	-7.626
703453.271	9326104.834	-7.626
704143.943	9326291.015	-7.628
704141.941	9326246.972	-7.628
704141.941	9326224.951	-7.628
702354.201	9326184.912	-7.628
702354.201	9326228.955	-7.628
702355.202	9326340.063	-7.628
700558.453	9327077.781	-7.628
702957.788	9326045.776	-7.63
702956.787	9326000.733	-7.63
702556.397	9326090.82	-7.63
702553.395	9326152.881	-7.631
703364.184	9326073.804	-7.633
703360.18	9326010.742	-7.633
703361.181	9325967.7	-7.634
705419.184	9326725.438	-7.635
705418.183	9326767.479	-7.636
705420.185	9326787.498	-7.636
705420.185	9326809.52	-7.636
704237.033	9326277.002	-7.637
705039.815	9326496.215	-7.637
704238.034	9326299.023	-7.638
704238.034	9326321.044	-7.638
704239.035	9326342.065	-7.638
704240.036	9326364.086	-7.638
704938.716	9326458.178	-7.642
704939.717	9326480.199	-7.642
706027.777	9327120.823	-7.643
706026.776	9327141.843	-7.643
706028.778	9327161.863	-7.643
704930.709	9327707.394	-7.643
703991.795	9326266.992	-7.644
703943.748	9326177.905	-7.645
703941.746	9326198.926	-7.645
702756.592	9326076.807	-7.645
702757.593	9326118.848	-7.645
701958.816	9326402.123	-7.645
702757.593	9326139.868	-7.646
705929.681	9327115.818	-7.648
705926.678	9327095.799	-7.648
705924.676	9327074.778	-7.648
705922.674	9327053.758	-7.648
701762.625	9326580.297	-7.653
701760.623	9326642.357	-7.654
704108.909	9326276.001	-7.655
704232.029	9326268.994	-7.656
705323.091	9326764.476	-7.657
705323.091	9326744.457	-7.657
704840.621	9326435.155	-7.657
701548.416	9326749.461	-7.661
701360.233	9326797.508	-7.661
704634.42	9326451.171	-7.663
704638.424	9326432.153	-7.663
703054.883	9326050.781	-7.67
703054.883	9326073.804	-7.67
703253.076	9326039.771	-7.673
703253.076	9326061.792	-7.673
703253.076	9326083.813	-7.673
703254.077	9326102.832	-7.674
703755.565	9326127.856	-7.675
703751.561	9326147.876	-7.675
705834.589	9327009.715	-7.675
704440.231	9326455.175	-7.675
700856.743	9327027.732	-7.675
700856.743	9327049.754	-7.675
703747.557	9326292.016	-7.676
704442.233	9326410.131	-7.676
704740.524	9326409.13	-7.68
704740.524	9326429.15	-7.68
700768.657	9327060.764	-7.68
703544.359	9326151.88	-7.684
703546.361	9326172.9	-7.684
703546.361	9326194.922	-7.684
701155.033	9326932.64	-7.686
702054.909	9326456.176	-7.687
702049.904	9326409.13	-7.687
702049.904	9326388.11	-7.687
702052.907	9326367.089	-7.688
701075.956	9326929.637	-7.688
702062.917	9326283.007	-7.689
701074.955	9326970.677	-7.689
705221.992	9326638.353	-7.69
705223.994	9326659.374	-7.69
705221.992	9326680.394	-7.69
704040.842	9326288.012	-7.691
704039.842	9326266.992	-7.691
704038.841	9326246.972	-7.691
705618.378	9326889.598	-7.692
705618.378	9326911.619	-7.692
702154.006	9326271.997	-7.692
702157.009	9326293.017	-7.692
702160.012	9326335.058	-7.692
702162.014	9326356.078	-7.692
702160.012	9326398.119	-7.692
705138.911	9326220.947	-7.694
701847.708	9326616.332	-7.696
701851.712	9326573.29	-7.696
701850.711	9326553.27	-7.696
701851.712	9326531.249	-7.697
701849.71	9326488.207	-7.697
701224.101	9326877.586	-7.697
701226.103	9326898.607	-7.697
704346.14	9326343.066	-7.698
704350.144	9326365.087	-7.698
704352.146	9326409.13	-7.698
701671.536	9326554.271	-7.698
701274.149	9326882.591	-7.698
701274.149	9326861.571	-7.698
701272.147	9326840.55	-7.698
700663.555	9327078.782	-7.701
702665.504	9326149.878	-7.704
702668.507	9326109.839	-7.704
702669.508	9326087.817	-7.705
700963.847	9326989.695	-7.707
700963.847	9326968.675	-7.707
705523.286	9326941.649	-7.708
705524.287	9326921.629	-7.708
705526.288	9326901.61	-7.708
703651.463	9326215.942	-7.71
703650.462	9326193.921	-7.71
703650.462	9326171.899	-7.71
701447.318	9326748.46	-7.71
705723.48	9327026.731	-7.713
705726.483	9326964.671	-7.714
702256.105	9326278.002	-7.715
702253.102	9326211.938	-7.715
702255.104	9326190.918	-7.715
702264.113	9326363.085	-7.716
702253.102	9326300.024	-7.716
704531.32	9326433.154	-7.717
704529.318	9326455.175	-7.717
703152.978	9326140.869	-7.722
703156.982	9326116.846	-7.722
702787.623	9326180.908	-7.722
702772.608	9326159.888	-7.722
703847.654	9326285.009	-7.723
703160.986	9326095.825	-7.723
702758.594	9326124.853	-7.723
702783.619	9326095.825	-7.723
702804.639	9326098.828	-7.723
702824.659	9326105.835	-7.723
703847.654	9326243.969	-7.724
703846.653	9326203.93	-7.724
703846.653	9326161.889	-7.724
702845.679	9326106.836	-7.724
702871.704	9326074.805	-7.724
703451.269	9326281.005	-7.725
702299.147	9326280.004	-7.725
702321.169	9326280.004	-7.725
702343.19	9326280.004	-7.725
703450.268	9326215.942	-7.726
703449.267	9326192.92	-7.726
703453.271	9326126.855	-7.726
702365.211	9326279.003	-7.726
702388.234	9326278.002	-7.726
702410.255	9326278.002	-7.726
704145.945	9326402.123	-7.727
704146.946	9326358.08	-7.727
704145.945	9326336.059	-7.727
700566.46	9327140.842	-7.727
700564.458	9327119.822	-7.727
700560.455	9327098.801	-7.727
702453.297	9326276.001	-7.727
702476.32	9326275	-7.727
704144.944	9326314.038	-7.728
702356.203	9326250.976	-7.728
702357.204	9326318.041	-7.728
702353.2	9326363.085	-7.728
702955.786	9326133.862	-7.729
702953.784	9326111.841	-7.729
702954.785	9326089.819	-7.729
702955.786	9326067.798	-7.73
702554.396	9326174.902	-7.731
703362.182	9326116.846	-7.732
703362.182	9326095.825	-7.733
702552.394	9326302.026	-7.733
701271.146	9326924.632	-7.735
701272.147	9326903.611	-7.735
705420.185	9326829.539	-7.736
705420.185	9326851.561	-7.736
703323.144	9326271.997	-7.736
705422.187	9326873.582	-7.737
705423.188	9326894.603	-7.737
704241.037	9326386.108	-7.738
704242.038	9326408.129	-7.739
704243.039	9326430.151	-7.739
704243.039	9326452.172	-7.739
704939.717	9326499.218	-7.742
703798.607	9326276.001	-7.742
703821.629	9326275	-7.742
703865.672	9326272.998	-7.742
706029.779	9327182.883	-7.743
706031.781	9327202.903	-7.743
703887.693	9326271.997	-7.743
703909.715	9326269.995	-7.743
703931.736	9326267.993	-7.743
703954.759	9326266.992	-7.743
703940.745	9326221.948	-7.746
703941.746	9326243.969	-7.746
703941.746	9326266.992	-7.746
703941.746	9326289.013	-7.746
703941.746	9326311.035	-7.746
702757.593	9326159.888	-7.746
701958.816	9326486.205	-7.746
701958.816	9326507.226	-7.746
704009.812	9326257.983	-7.746
702755.591	9326201.928	-7.747
702756.592	9326223.95	-7.747
701954.812	9326549.267	-7.747
705930.682	9327156.858	-7.748
705930.682	9327136.839	-7.748
701953.811	9326612.328	-7.748
701762.625	9326600.316	-7.754
701761.624	9326621.337	-7.754
704002.805	9326267.993	-7.754
704022.825	9326278.002	-7.754
704042.844	9326269.995	-7.754
704066.868	9326271.997	-7.755
704087.888	9326275	-7.755
704128.928	9326273.999	-7.755
704148.948	9326271.997	-7.755
704168.967	9326270.996	-7.755
704188.987	9326269.995	-7.755
705328.096	9326830.54	-7.757
705327.095	9326809.52	-7.757
705325.093	9326787.498	-7.757
704839.62	9326497.216	-7.757
704841.622	9326477.196	-7.757
704841.622	9326456.176	-7.757
701545.413	9326684.398	-7.76
701351.224	9326881.59	-7.76
701352.225	9326903.611	-7.76
701548.416	9326771.483	-7.761
701362.235	9326819.53	-7.761
701358.231	9326840.55	-7.761
701352.225	9326860.57	-7.761
701550.418	9326814.525	-7.762
704634.42	9326473.193	-7.763
703054.883	9326092.822	-7.77
703053.882	9326114.844	-7.771
703057.886	9326135.864	-7.771
703055.884	9326158.887	-7.771
703255.078	9326123.852	-7.774
703749.559	9326166.894	-7.775
703750.56	9326207.934	-7.775
703751.561	9326229.956	-7.775
704440.231	9326477.196	-7.775
700856.743	9327071.775	-7.775
700857.744	9327093.797	-7.775
705825.58	9327050.755	-7.776
705825.58	9327071.775	-7.776
705826.581	9327094.798	-7.776
704440.231	9326431.152	-7.776
702454.298	9326295.019	-7.776
702457.301	9326271.997	-7.776
702459.303	9326228.955	-7.776
705825.58	9327135.838	-7.777
702456.3	9326185.913	-7.777
702462.306	9326164.892	-7.777
705825.58	9327175.877	-7.778
700767.656	9327079.783	-7.78
704740.524	9326449.169	-7.781
703545.36	9326216.943	-7.784
704727.511	9326801.512	-7.784
701155.033	9326910.618	-7.785
702055.91	9326478.197	-7.786
701153.031	9326996.702	-7.786
701155.033	9326953.66	-7.786
704040.842	9326372.094	-7.789
701080.961	9326993.699	-7.789
704040.842	9326352.075	-7.79
705221.992	9326702.416	-7.79
705620.38	9326931.639	-7.792
705621.381	9326952.659	-7.792
705623.383	9326973.68	-7.792
702159.011	9326314.038	-7.792
702162.014	9326377.099	-7.792
702159.011	9326420.141	-7.792
705625.385	9326994.7	-7.793
705137.91	9326242.968	-7.794
705137.91	9326264.99	-7.795
705137.91	9326287.011	-7.795
702662.501	9326786.497	-7.795
701847.708	9326658.373	-7.795
701846.707	9326637.352	-7.795
701651.517	9326765.477	-7.795
701850.711	9326594.31	-7.796
701650.516	9326743.456	-7.796
701649.515	9326699.413	-7.796
701228.105	9326918.626	-7.797
701229.105	9326941.649	-7.797
704353.146	9326432.153	-7.798
704355.148	9326454.174	-7.798
704354.147	9326476.195	-7.799
700665.557	9327122.825	-7.801
700666.558	9327144.846	-7.801
702663.502	9326280.004	-7.802
702662.501	9326258.984	-7.802
702664.503	9326236.963	-7.803
702666.505	9326172.9	-7.804
700963.847	9327011.717	-7.807
705527.289	9326985.691	-7.808
705524.287	9326964.671	-7.808
703653.465	9326304.028	-7.809
703653.465	9326282.006	-7.809
703653.465	9326259.985	-7.809
703653.465	9326237.964	-7.809
701447.318	9326811.522	-7.809
701447.318	9326791.502	-7.809
705725.482	9327090.794	-7.813
705724.481	9327047.752	-7.813
705723.48	9327004.71	-7.814
705726.483	9326984.69	-7.814
702255.104	9326423.144	-7.816
702258.107	9326404.125	-7.816
702263.112	9326385.107	-7.816
702251.1	9326321.044	-7.816
704528.317	9326474.193	-7.817
704528.317	9326495.214	-7.817
703153.979	9326204.931	-7.822
703154.98	9326159.888	-7.822
702764.6	9326142.871	-7.822
703847.654	9326264.99	-7.824
703449.267	9326324.047	-7.825
703449.267	9326303.027	-7.825
703455.272	9326257.983	-7.825
703454.272	9326236.963	-7.826
702431.276	9326277.002	-7.826
704145.945	9326446.166	-7.827
704145.945	9326424.145	-7.827
704146.946	9326380.102	-7.827
700565.459	9327162.864	-7.827
702498.341	9326276.001	-7.827
702519.361	9326277.002	-7.827
702958.789	9326177.905	-7.828
702356.203	9326272.998	-7.828
702357.204	9326295.019	-7.828
702541.383	9326279.003	-7.828
702563.404	9326280.004	-7.828
702607.447	9326280.004	-7.828
702673.511	9326278.002	-7.829
702782.618	9326279.003	-7.83
703361.181	9326202.929	-7.832
703363.183	9326181.909	-7.832
703363.183	9326138.867	-7.832
702552.394	9326215.942	-7.832
702550.392	9326236.963	-7.832
702959.79	9326270.996	-7.832
702553.395	9326260.986	-7.833
703046.875	9326261.987	-7.833
702554.396	9326321.044	-7.834
701272.147	9326945.652	-7.835
701272.147	9326967.674	-7.836
705423.188	9326915.623	-7.837
705424.189	9326935.643	-7.837
705421.186	9326997.703	-7.837
705039.815	9326517.235	-7.837
704244.04	9326473.193	-7.839
703557.372	9326275	-7.839
703601.415	9326275	-7.84
703645.458	9326273.999	-7.84
703667.479	9326275	-7.84
703689.5	9326275	-7.841
703711.522	9326276.001	-7.841
703732.542	9326276.001	-7.841
703776.585	9326276.001	-7.842
703843.651	9326273.999	-7.842
706032.781	9327224.924	-7.843
706029.779	9327244.944	-7.843
703974.778	9326266.992	-7.844
704006.809	9326264.99	-7.845
703942.747	9326331.054	-7.846
703942.747	9326354.077	-7.846
702756.592	9326179.907	-7.846
701958.816	9326465.185	-7.846
701956.814	9326528.246	-7.846
703940.745	9326398.119	-7.847
702756.592	9326246.972	-7.847
701954.812	9326570.287	-7.847
701953.811	9326591.307	-7.847
705925.677	9327218.918	-7.848
705926.678	9327197.898	-7.848
705927.679	9327178.879	-7.848
702757.593	9326268.994	-7.848
701953.811	9326655.37	-7.848
701759.622	9326662.377	-7.854
704835.616	9326682.396	-7.855
701753.616	9326726.439	-7.855
705327.095	9326940.648	-7.856
705325.093	9326874.583	-7.856
704838.619	9326519.237	-7.856
705327.095	9326852.562	-7.857
701350.223	9326926.634	-7.86
701349.222	9326948.655	-7.86
701350.223	9326970.677	-7.86
701549.417	9326727.44	-7.861
704629.415	9326540.258	-7.862
704630.416	9326519.237	-7.862
704634.42	9326497.216	-7.862
701548.416	9326792.503	-7.862
703054.883	9326177.905	-7.871
703054.883	9326197.925	-7.872
704440.231	9326589.306	-7.874
704438.229	9326566.283	-7.874
703254.077	9326146.875	-7.874
703252.075	9326166.894	-7.874
703250.073	9326184.912	-7.874
703748.558	9326187.915	-7.875
703749.559	9326249.975	-7.875
704438.229	9326544.262	-7.875
704440.231	9326522.24	-7.875
704441.232	9326499.218	-7.875
700859.746	9327115.818	-7.875
702454.298	9326338.061	-7.876
702454.298	9326315.039	-7.876
702458.302	9326249.975	-7.876
705826.581	9327115.818	-7.877
705825.58	9327155.857	-7.877
702458.302	9326206.933	-7.877
700762.651	9327121.824	-7.879
700762.651	9327098.801	-7.88
704741.525	9326470.19	-7.881
704741.525	9326490.209	-7.881
703545.36	9326237.964	-7.884
704726.51	9326821.532	-7.884
703544.359	9326259.985	-7.885
703543.358	9326281.005	-7.885
703541.356	9326303.027	-7.885
703541.356	9326324.047	-7.885
702056.911	9326499.218	-7.886
701147.026	9327038.743	-7.886
701154.032	9326975.682	-7.886
704035.838	9326456.176	-7.888
704036.839	9326433.154	-7.888
701301.176	9327477.17	-7.888
704038.841	9326413.134	-7.889
701078.959	9327014.72	-7.889
701077.958	9327057.762	-7.889
704041.843	9326310.034	-7.89
702153.005	9326462.182	-7.891
702156.008	9326442.162	-7.892
705627.387	9327015.721	-7.893
705628.388	9327036.741	-7.893
701843.704	9326701.415	-7.894
705136.909	9326310.034	-7.895
705133.906	9326332.055	-7.895
701846.707	9326679.393	-7.895
701655.521	9326829.539	-7.895
701656.522	9326807.518	-7.895
701652.518	9326786.497	-7.895
701648.514	9326722.435	-7.896
701229.105	9326962.669	-7.897
701230.106	9326983.689	-7.897
704348.142	9326498.217	-7.899
704340.134	9326520.238	-7.899
702662.501	9326300.024	-7.902
702664.503	9326214.941	-7.903
702663.502	9326194.922	-7.903
700963.847	9327073.777	-7.906
700963.847	9327052.757	-7.906
700964.848	9327031.736	-7.906
705527.289	9327049.754	-7.908
705529.291	9327027.732	-7.908
705530.292	9327004.71	-7.908
701445.316	9326894.603	-7.908
701444.315	9326872.581	-7.908
701443.314	9326852.562	-7.908
703655.467	9326348.071	-7.909
703654.466	9326326.049	-7.909
701444.315	9326831.541	-7.909
705724.481	9327152.854	-7.912
705724.481	9327131.834	-7.912
705726.483	9327110.813	-7.912
705725.482	9327068.772	-7.913
702258.107	9326341.064	-7.916
704530.319	9326518.236	-7.917
704525.314	9326537.255	-7.918
704526.315	9326558.275	-7.918
704527.316	9326580.297	-7.918
702896.729	9326363.085	-7.92
702903.736	9326343.066	-7.92
703144.97	9326245.971	-7.921
703146.972	9326224.951	-7.921
702879.712	9326281.005	-7.921
703155.981	9326181.909	-7.922
703843.651	9326367.089	-7.923
703850.657	9326348.071	-7.923
703853.66	9326327.05	-7.923
703849.656	9326305.029	-7.923
703447.265	9326411.132	-7.924
703453.271	9326368.09	-7.925
704144.944	9326490.209	-7.926
704145.945	9326468.188	-7.926
700561.456	9327205.906	-7.926
702670.509	9323789.58	-7.927
702355.202	9326385.107	-7.927
702357.204	9326407.128	-7.927
702357.204	9326429.15	-7.927
702357.204	9326451.171	-7.927
700563.458	9327183.884	-7.927
702961.792	9326243.969	-7.928
702959.79	9326220.947	-7.928
702957.788	9326199.926	-7.928
702585.426	9326281.005	-7.928
702958.789	9326155.884	-7.929
702628.468	9326279.003	-7.929
702650.489	9326278.002	-7.929
702695.533	9326278.002	-7.929
702739.576	9326280.004	-7.93
702761.597	9326279.003	-7.93
703357.177	9326245.971	-7.931
703359.179	9326223.95	-7.931
702805.64	9326277.002	-7.931
702826.661	9326273.999	-7.931
702849.683	9326271.997	-7.931
702871.704	9326269.995	-7.931
702892.725	9326266.992	-7.931
703364.184	9326160.888	-7.932
702916.748	9326265.991	-7.932
702938.77	9326266.992	-7.932
702555.397	9326282.006	-7.933
703067.895	9326258.984	-7.933
702556.397	9326342.065	-7.934
702555.397	9326367.089	-7.934
703088.916	9326254.98	-7.934
703110.937	9326250.976	-7.934
703132.959	9326248.974	-7.934
703154.98	9326246.972	-7.934
703177.002	9326244.97	-7.935
703199.023	9326243.969	-7.935
703221.044	9326242.968	-7.935
703243.066	9326243.969	-7.935
701276.151	9327030.735	-7.936
701275.15	9327010.716	-7.936
701272.147	9326988.694	-7.936
703265.087	9326246.972	-7.936
703304.125	9326261.987	-7.936
705426.191	9326955.662	-7.937
705426.191	9326976.683	-7.937
705039.815	9326538.256	-7.937
703343.163	9326281.005	-7.937
703363.183	9326288.012	-7.937
703384.203	9326293.017	-7.937
703405.224	9326294.018	-7.937
705418.183	9327017.723	-7.938
703448.266	9326289.013	-7.938
703470.287	9326286.01	-7.938
703492.309	9326281.005	-7.938
704244.04	9326495.214	-7.939
703514.33	9326279.003	-7.939
703536.351	9326276.001	-7.939
703579.393	9326275	-7.939
704245.041	9326517.235	-7.94
704245.041	9326539.257	-7.94
704245.041	9326561.278	-7.94
703623.436	9326273.999	-7.94
703755.565	9326276.001	-7.941
704940.718	9326522.24	-7.942
706029.779	9327265.964	-7.943
706030.78	9327288.987	-7.943
706028.778	9327308.005	-7.943
703941.746	9326376.098	-7.946
703942.747	9326421.142	-7.947
705926.678	9327771.456	-7.947
705927.679	9327259.958	-7.948
705928.68	9327238.938	-7.948
702757.593	9326292.016	-7.948
701953.811	9326633.348	-7.948
701953.811	9326676.39	-7.948
701757.62	9326682.396	-7.955
701755.618	9326704.418	-7.955
701753.616	9326749.461	-7.955
705324.092	9327008.714	-7.956
705324.092	9326986.692	-7.956
705325.093	9326963.67	-7.956
705327.095	9326918.626	-7.956
705325.093	9326897.606	-7.956
701755.618	9326790.501	-7.956
704629.415	9326584.301	-7.961
702668.507	9323810.601	-7.962
704630.416	9326564.281	-7.962
701549.417	9326836.546	-7.962
701549.417	9326857.567	-7.963
701549.417	9326879.588	-7.963
703055.884	9326217.944	-7.972
703054.883	9326239.965	-7.972
703055.884	9326259.985	-7.972
704446.237	9326655.37	-7.974
704443.234	9326632.347	-7.974
704443.234	9326611.327	-7.974
703252.075	9326205.932	-7.975
703252.075	9326226.953	-7.975
703250.073	9326246.972	-7.975
703251.074	9326265.991	-7.975
700862.749	9327137.839	-7.975
703747.557	9326268.994	-7.976
703744.554	9326316.04	-7.976
703744.554	9326334.057	-7.976
703249.072	9326287.011	-7.976
702451.295	9326358.08	-7.976
705825.58	9327197.898	-7.978
705825.58	9327220.92	-7.978
705826.581	9327240.94	-7.979
700769.658	9327162.864	-7.979
700766.655	9327140.842	-7.979
704739.523	9326511.23	-7.981
704737.521	9326532.25	-7.981
702053.908	9326649.364	-7.984
703543.358	9326345.068	-7.985
703544.359	9326367.089	-7.985
703545.36	9326388.11	-7.985
702051.906	9326626.342	-7.985
702054.909	9326606.322	-7.985
702056.911	9326585.302	-7.985
702057.912	9326565.282	-7.985
702055.91	9326522.24	-7.986
701150.028	9327018.724	-7.986
701076.957	9327035.74	-7.989
701078.959	9327077.781	-7.989
705224.995	9326725.438	-7.99
702143.996	9326567.284	-7.991
702143.996	9326587.304	-7.991
705628.388	9327058.763	-7.993
705627.387	9327076.78	-7.993
705626.386	9327099.802	-7.993
701845.706	9326786.497	-7.993
701844.705	9326764.476	-7.994
701845.706	9326742.455	-7.994
701846.707	9326722.435	-7.994
705130.904	9326354.077	-7.995
705130.904	9326376.098	-7.995
705130.904	9326398.119	-7.995
701229.105	9327005.711	-7.997
701230.106	9327028.733	-7.997
701234.11	9327047.752	-7.997
701232.108	9327069.773	-7.997
704337.131	9326541.259	-7.999
704333.127	9326563.28	-7.999
704332.126	9326585.302	-7.999
704333.127	9326607.323	-8
702661.5	9326364.086	-8.001
702662.501	9326320.043	-8.002
700667.559	9327166.868	-8.002
700667.559	9327189.89	-8.002
700668.56	9327211.912	-8.002
702673.511	9323957.744	-8.006
705514.277	9327117.82	-8.007
701446.317	9326937.645	-8.007
705519.282	9327094.798	-8.008
705522.285	9327071.775	-8.008
703653.465	9326392.114	-8.009
703654.466	9326370.092	-8.009
705728.485	9327194.895	-8.011
705725.482	9327173.875	-8.012
702254.103	9326444.164	-8.016
702256.105	9326487.206	-8.017
702255.104	9326465.185	-8.017
704527.316	9326599.315	-8.018
704526.315	9326620.336	-8.018
704529.318	9326643.358	-8.019
704529.318	9326660.375	-8.019
702893.726	9326322.045	-8.02
702880.713	9326304.028	-8.02
703147.973	9326267.993	-8.021
703847.654	9326450.17	-8.022
703848.655	9326429.15	-8.022
703846.653	9326408.129	-8.023
703842.65	9326388.11	-8.023
703451.269	9326389.111	-8.025
703451.269	9326347.07	-8.025
704145.945	9326555.272	-8.026
704145.945	9326534.252	-8.026
704145.945	9326512.231	-8.026
702961.792	9326353.076	-8.026
702963.794	9326288.012	-8.027
702963.794	9326265.991	-8.027
702357.204	9326473.193	-8.027
702358.205	9326495.214	-8.027
702359.206	9326517.235	-8.027
703002.832	9326270.996	-8.033
703024.853	9326267.993	-8.033
702557.398	9326387.109	-8.035
702564.405	9326471.191	-8.036
703285.107	9326253.979	-8.036
705038.814	9326560.277	-8.037
701278.153	9327073.777	-8.037
705418.183	9327037.742	-8.038
705415.18	9327058.763	-8.038
705410.175	9327078.782	-8.038
705414.179	9327099.802	-8.038
703426.244	9326292.016	-8.038
704244.04	9326582.299	-8.04
704244.04	9326604.32	-8.04
704245.041	9326626.342	-8.041
704941.719	9326540.258	-8.042
706030.78	9327330.027	-8.043
706029.779	9327349.045	-8.043
703941.746	9326443.163	-8.047
703940.745	9326465.185	-8.047
703939.744	9326487.206	-8.047
703938.743	9326508.227	-8.047
705925.677	9327300.998	-8.048
705925.677	9327279.978	-8.048
702756.592	9326314.038	-8.048
702756.592	9326354.077	-8.049
702757.593	9326374.096	-8.049
701952.81	9326698.412	-8.049
701952.81	9326719.432	-8.049
701952.81	9326740.453	-8.049
701950.808	9326761.473	-8.05
705325.093	9327052.757	-8.055
705326.094	9327030.735	-8.056
704835.616	9326560.277	-8.056
704837.618	9326539.257	-8.056
701754.617	9326769.481	-8.056
701758.621	9326810.521	-8.056
701351.224	9326992.698	-8.059
701350.223	9327015.721	-8.059
701349.222	9327037.742	-8.059
704633.419	9326629.345	-8.061
704630.416	9326605.321	-8.061
701549.417	9326901.61	-8.063
704442.233	9326700.414	-8.073
703052.881	9326281.005	-8.073
703054.883	9326300.024	-8.073
703052.881	9326321.044	-8.073
703050.879	9326343.066	-8.074
703049.878	9326362.084	-8.074
702453.297	9326444.164	-8.075
702449.293	9326421.142	-8.075
702453.297	9326401.122	-8.075
700865.752	9327159.861	-8.075
700866.753	9327182.883	-8.075
700867.754	9327204.905	-8.075
703746.556	9326354.077	-8.076
703743.553	9326375.097	-8.076
703747.557	9326397.118	-8.076
702676.514	9323997.783	-8.076
703245.068	9326307.031	-8.076
703244.067	9326346.069	-8.076
703752.562	9326419.14	-8.077
703748.558	9326483.202	-8.077
705826.581	9327260.959	-8.079
700767.656	9327202.903	-8.079
700769.658	9327181.882	-8.079
704736.52	9326552.269	-8.082
704735.519	9326573.29	-8.082
702058.913	9326774.486	-8.083
704038.841	9326676.39	-8.085
703545.36	9326410.131	-8.085
704036.839	9326591.307	-8.086
704035.838	9326570.287	-8.086
703545.36	9326432.153	-8.086
703545.36	9326454.174	-8.086
702056.911	9326544.262	-8.086
701153.031	9327102.805	-8.086
701147.026	9327060.764	-8.086
704035.838	9326550.268	-8.087
704033.836	9326500.219	-8.087
704034.837	9326478.197	-8.088
704039.842	9326393.115	-8.089
701076.957	9327098.801	-8.089
704040.842	9326331.054	-8.09
705224.995	9326745.458	-8.09
701076.957	9327121.824	-8.09
705215.986	9326893.602	-8.091
702151.003	9326483.202	-8.091
702149.001	9326504.223	-8.091
702145.998	9326525.243	-8.091
702144.997	9326546.264	-8.091
705215.986	9326913.621	-8.092
705218.989	9326933.641	-8.092
705221.992	9326954.661	-8.092
705220.991	9326976.683	-8.092
705222.993	9327017.723	-8.092
701849.71	9326870.579	-8.092
705624.384	9327119.822	-8.093
705626.386	9327139.841	-8.093
705623.383	9327161.863	-8.094
701656.522	9326849.559	-8.094
702668.507	9323831.621	-8.096
705128.902	9326421.142	-8.096
705127.901	9326443.163	-8.096
701232.108	9327090.794	-8.097
704333.127	9326631.346	-8.1
702661.5	9326449.169	-8.1
702660.499	9326428.149	-8.1
702662.501	9326406.127	-8.1
702662.501	9326385.107	-8.101
702660.499	9326343.066	-8.101
700966.85	9327136.839	-8.106
700965.849	9327115.818	-8.106
700964.848	9327094.798	-8.106
705517.28	9327177.878	-8.107
705517.28	9327158.86	-8.107
705513.276	9327135.838	-8.107
701447.318	9326981.687	-8.107
701446.317	9326959.666	-8.107
703648.461	9326479.198	-8.108
703651.463	9326458.178	-8.108
703653.465	9326436.156	-8.108
703653.465	9326414.135	-8.108
701446.317	9326916.624	-8.108
705733.49	9327257.956	-8.111
705733.49	9327236.936	-8.111
705731.488	9327215.915	-8.111
702253.102	9326548.266	-8.117
702252.101	9326528.246	-8.117
702254.103	9326508.227	-8.117
704529.318	9326682.396	-8.119
704527.316	9326704.418	-8.119
704528.317	9326725.438	-8.119
704528.317	9326744.457	-8.12
703148.974	9326377.099	-8.12
703142.968	9326312.036	-8.12
703144.97	9326290.014	-8.121
703848.655	9326471.191	-8.122
703448.266	9326543.261	-8.124
703449.267	9326522.24	-8.124
703448.266	9326477.196	-8.124
703447.265	9326455.175	-8.124
703446.264	9326433.154	-8.124
704137.937	9326753.465	-8.124
704141.941	9326643.358	-8.125
704141.941	9326621.337	-8.125
704142.942	9326599.315	-8.126
704144.944	9326577.294	-8.126
702963.794	9326332.055	-8.126
700561.456	9327248.948	-8.126
700560.455	9327227.927	-8.126
702963.794	9326310.034	-8.127
702360.207	9326540.258	-8.127
702359.206	9326562.279	-8.127
702358.205	9326583.3	-8.127
703360.18	9326418.139	-8.13
703361.181	9326396.117	-8.13
703361.181	9326376.098	-8.13
703360.18	9326354.077	-8.13
703359.179	9326332.055	-8.13
702669.508	9323853.643	-8.131
703358.178	9326311.035	-8.131
703356.176	9326289.013	-8.131
703355.175	9326266.992	-8.131
702557.398	9326406.127	-8.135
702559.4	9326427.148	-8.135
702563.404	9326449.169	-8.136
702562.403	9326491.21	-8.136
701276.151	9327052.757	-8.136
701279.154	9327094.798	-8.137
705414.179	9327120.823	-8.138
705415.18	9327140.842	-8.139
705415.18	9327160.862	-8.139
702674.512	9323977.763	-8.141
704245.041	9326648.363	-8.141
704245.041	9326670.384	-8.141
704245.041	9326692.406	-8.141
704941.719	9326563.28	-8.142
706030.78	9327371.067	-8.143
706030.78	9327392.087	-8.143
706028.778	9327412.106	-8.143
703939.744	9326528.246	-8.147
703941.746	9326548.266	-8.147
703941.746	9326569.286	-8.147
705930.682	9327342.038	-8.147
703940.745	9326590.307	-8.148
705928.68	9327322.019	-8.148
702756.592	9326334.057	-8.149
702755.591	9326396.117	-8.149
702753.589	9326419.14	-8.15
701950.808	9326782.494	-8.15
702761.597	9326483.202	-8.151
702761.597	9326503.222	-8.151
705323.091	9327160.862	-8.155
705323.091	9327137.839	-8.155
705322.09	9327097.801	-8.155
705323.091	9327075.779	-8.155
701761.624	9326830.54	-8.156
701762.625	9326850.56	-8.157
701761.624	9326870.579	-8.157
701350.223	9327060.764	-8.159
701349.222	9327082.786	-8.159
704634.42	9326698.412	-8.16
704634.42	9326651.366	-8.161
701549.417	9326923.631	-8.164
701549.417	9326945.652	-8.164
701549.417	9326966.673	-8.164
702671.51	9323874.663	-8.165
701545.413	9327161.863	-8.167
704441.232	9326767.479	-8.173
704442.233	9326745.458	-8.173
704441.232	9326723.436	-8.173
704443.234	9326677.391	-8.173
703049.878	9326381.103	-8.174
703051.88	9326406.127	-8.174
702456.3	9326614.33	-8.174
702457.301	9326484.203	-8.175
702454.298	9326463.183	-8.175
700866.753	9327226.926	-8.175
700865.752	9327248.948	-8.175
703244.067	9326328.051	-8.176
703246.069	9326367.089	-8.176
703750.56	9326439.159	-8.177
703752.562	9326462.182	-8.177
703743.553	9326504.223	-8.177
703251.074	9326388.11	-8.177
705826.581	9327282.981	-8.179
705827.582	9327304.001	-8.179
700768.657	9327223.923	-8.179
705828.583	9327326.023	-8.18
704735.519	9326594.31	-8.182
702056.911	9326713.426	-8.184
702059.914	9326693.407	-8.184
702057.912	9326671.385	-8.184
704037.84	9326655.37	-8.185
704037.84	9326634.349	-8.185
704036.839	9326612.328	-8.186
703545.36	9326475.194	-8.186
703546.361	9326497.216	-8.186
703546.361	9326519.237	-8.186
703545.36	9326540.258	-8.186
701153.031	9327144.846	-8.186
701154.032	9327124.827	-8.186
701151.029	9327081.785	-8.186
702151.003	9326649.364	-8.19
701075.956	9327142.844	-8.19
701073.954	9327162.864	-8.19
702143.996	9326608.324	-8.191
702149.001	9326628.344	-8.191
705219.99	9326996.702	-8.192
705222.993	9327038.743	-8.192
705221.992	9327059.763	-8.192
701852.713	9326888.597	-8.192
701849.71	9326849.559	-8.192
705223.994	9327080.784	-8.193
705222.993	9327101.804	-8.193
701851.712	9326825.535	-8.193
701850.711	9326805.516	-8.193
701643.509	9326978.685	-8.193
701649.515	9326956.663	-8.193
701656.522	9326935.643	-8.193
705618.378	9327180.881	-8.194
705619.379	9327202.903	-8.194
705617.377	9327242.942	-8.194
701655.521	9326915.623	-8.194
701655.521	9326893.602	-8.194
701654.52	9326873.582	-8.194
705128.902	9326464.184	-8.196
705131.905	9326485.204	-8.196
701232.108	9327112.815	-8.196
701233.109	9327155.857	-8.196
702661.5	9326471.191	-8.199
704334.128	9326653.368	-8.2
704337.131	9326673.387	-8.2
704341.135	9326695.409	-8.2
704341.135	9326720.433	-8.2
704344.138	9326740.453	-8.2
700667.559	9327232.932	-8.202
700668.56	9327254.953	-8.202
700667.559	9327276.975	-8.203
701446.317	9327023.728	-8.206
701448.319	9327003.709	-8.206
700967.851	9327156.858	-8.206
703647.46	9326589.306	-8.207
703649.462	9326567.284	-8.207
705519.282	9327309.006	-8.207
705520.283	9327198.899	-8.207
703650.462	9326545.263	-8.208
703649.462	9326524.242	-8.208
703648.461	9326502.221	-8.208
705730.487	9327299.997	-8.21
705732.489	9327278.977	-8.21
702675.513	9324017.802	-8.212
702252.101	9326592.308	-8.217
702253.102	9326570.287	-8.217
702846.68	9326519.237	-8.218
702840.674	9326504.223	-8.218
702837.671	9326481.2	-8.218
703142.968	9326420.141	-8.219
702840.674	9326459.179	-8.219
702844.678	9326436.156	-8.219
702850.684	9326415.136	-8.219
702883.716	9326404.125	-8.219
704526.315	9326765.477	-8.22
704527.316	9326806.517	-8.22
703143.969	9326398.119	-8.22
703152.978	9326357.079	-8.22
703147.973	9326334.057	-8.22
704528.317	9326869.578	-8.221
703846.653	9326511.23	-8.222
703848.655	9326491.21	-8.222
703443.261	9326587.304	-8.223
703444.262	9326566.283	-8.224
703448.266	9326499.218	-8.224
704137.937	9326731.444	-8.225
704137.937	9326709.422	-8.225
704139.939	9326687.401	-8.225
704140.94	9326665.38	-8.225
702955.786	9326460.18	-8.225
702959.79	9326417.138	-8.225
702958.789	9326396.117	-8.226
702958.789	9326374.096	-8.226
700563.458	9327269.968	-8.226
702357.204	9326628.344	-8.227
702356.203	9326650.365	-8.227
703355.175	9326504.223	-8.229
703358.178	9326461.181	-8.229
703359.179	9326440.16	-8.229
705037.813	9326580.297	-8.237
702562.403	9326513.231	-8.237
702560.401	9326559.276	-8.237
701275.15	9327159.861	-8.237
701274.149	9327136.839	-8.237
702559.4	9326577.294	-8.238
705420.185	9327182.883	-8.239
705420.185	9327203.904	-8.239
705419.184	9327223.923	-8.239
705418.183	9327243.943	-8.239
704246.042	9326714.427	-8.241
704246.042	9326735.448	-8.242
704245.041	9326757.469	-8.242
704245.041	9326780.492	-8.242
704937.716	9326583.3	-8.242
706029.779	9327434.128	-8.243
706030.78	9327454.147	-8.243
706028.778	9327474.167	-8.243
705923.675	9327423.117	-8.247
705926.678	9327403.098	-8.247
705928.68	9327383.078	-8.247
705930.682	9327362.058	-8.247
703940.745	9326610.326	-8.248
703942.747	9326630.345	-8.248
702755.591	9326441.161	-8.25
701950.808	9326803.514	-8.25
701950.808	9326824.535	-8.25
701951.809	9326845.555	-8.251
705319.087	9327199.9	-8.255
705321.089	9327179.88	-8.255
705322.09	9327117.82	-8.255
704834.615	9326601.317	-8.256
704835.616	9326581.298	-8.256
701761.624	9326890.599	-8.257
701761.624	9326913.621	-8.257
701761.624	9326935.643	-8.258
704635.421	9326762.474	-8.259
701349.222	9327104.807	-8.259
704636.422	9326742.455	-8.26
704636.422	9326720.433	-8.26
704631.417	9326674.388	-8.26
701549.417	9326988.694	-8.264
701550.418	9327011.717	-8.265
702742.579	9327989.669	-8.268
704440.231	9326903.611	-8.271
704438.229	9326880.589	-8.272
704436.227	9326858.568	-8.272
704438.229	9326834.544	-8.272
704436.227	9326812.523	-8.272
704439.23	9326790.501	-8.272
702457.301	9326635.35	-8.274
702459.303	9326591.307	-8.274
703053.882	9326428.149	-8.275
703054.883	9326446.166	-8.275
703056.885	9326467.187	-8.275
702455.299	9326572.289	-8.275
702453.297	9326527.245	-8.275
702451.295	9326508.227	-8.275
700866.753	9327270.969	-8.275
703743.553	9326525.243	-8.277
703253.076	9326409.13	-8.277
703257.08	9326428.149	-8.277
703257.08	9326447.167	-8.277
703257.08	9326530.248	-8.278
700762.651	9327264.963	-8.279
700765.654	9327243.943	-8.279
705828.583	9327346.042	-8.28
705826.581	9327366.062	-8.28
704030.833	9327443.137	-8.281
705823.578	9327386.081	-8.281
704734.518	9326614.33	-8.282
704734.518	9326635.35	-8.282
704733.517	9326656.371	-8.283
702057.912	9326753.465	-8.283
704726.51	9326840.55	-8.284
703241.064	9327059.763	-8.284
704037.84	9326698.412	-8.285
703545.36	9326562.279	-8.286
703544.359	9326584.301	-8.286
703544.359	9326605.321	-8.286
701151.029	9327164.866	-8.286
702152.004	9326671.385	-8.29
702155.007	9326692.406	-8.29
702156.008	9326713.426	-8.29
702154.006	9326734.447	-8.29
702154.006	9326755.467	-8.29
701072.953	9327184.885	-8.29
701072.953	9327206.907	-8.29
701851.712	9326910.618	-8.291
705219.99	9327122.825	-8.293
705219.99	9327143.845	-8.293
705217.988	9327163.865	-8.293
705216.987	9327183.884	-8.293
705217.988	9327205.906	-8.293
701642.508	9327000.706	-8.293
705617.377	9327223.923	-8.294
705618.378	9327262.961	-8.294
705621.381	9327283.982	-8.294
705132.906	9326507.226	-8.296
701235.111	9327132.835	-8.296
702664.503	9326575.292	-8.298
702665.504	9326554.271	-8.298
702663.502	9326533.251	-8.299
702665.504	9326511.23	-8.299
702664.503	9326489.208	-8.299
702671.51	9323895.683	-8.3
704345.139	9326762.474	-8.301
704347.141	9326787.498	-8.301
704346.14	9326809.52	-8.301
704346.14	9326830.54	-8.301
700666.558	9327298.996	-8.303
701444.315	9327084.788	-8.305
700970.854	9327219.919	-8.305
700970.854	9327198.899	-8.305
700968.852	9327177.878	-8.305
701444.315	9327043.748	-8.306
703655.467	9326650.365	-8.307
703651.463	9326629.345	-8.307
703647.46	9326609.325	-8.307
705520.283	9327287.986	-8.307
705516.279	9327261.96	-8.307
705518.281	9327243.943	-8.307
705519.282	9327221.921	-8.307
705729.486	9327362.058	-8.309
705729.486	9327342.038	-8.309
705729.486	9327321.018	-8.31
702841.675	9326575.292	-8.317
702249.098	9326614.33	-8.317
703149.975	9326527.245	-8.318
703147.973	9326505.224	-8.318
702840.674	9326559.276	-8.318
702843.677	9326539.257	-8.318
702248.097	9326719.432	-8.318
702249.098	9326680.394	-8.318
702251.1	9326659.374	-8.318
703145.971	9326486.205	-8.319
703140.967	9326462.182	-8.319
703139.966	9326440.16	-8.319
704527.316	9326788.499	-8.32
704530.319	9326827.537	-8.32
703841.649	9326595.311	-8.321
704532.321	9326848.558	-8.321
704521.31	9326887.596	-8.321
704517.306	9326907.615	-8.321
704510.299	9326927.635	-8.321
703844.652	9326574.291	-8.322
703845.652	9326553.27	-8.322
703846.653	9326533.251	-8.322
704515.304	9326966.673	-8.322
703456.273	9326696.41	-8.323
704139.939	9326840.55	-8.324
704138.938	9326775.487	-8.324
702952.783	9326504.223	-8.324
702957.788	9326439.159	-8.325
700562.457	9327314.011	-8.325
700563.458	9327291.99	-8.325
702358.205	9326606.322	-8.327
702356.203	9326672.386	-8.327
702359.206	9326716.429	-8.327
703354.174	9326525.243	-8.329
703356.176	9326482.201	-8.329
702560.401	9326535.253	-8.337
701275.15	9327179.88	-8.337
701277.152	9327115.818	-8.337
702556.397	9326597.313	-8.338
702552.394	9326618.334	-8.338
705420.185	9327264.963	-8.339
702548.39	9326662.377	-8.339
705422.187	9327287.986	-8.34
704244.04	9326801.512	-8.342
704244.04	9326823.534	-8.342
706030.78	9327496.188	-8.343
706030.78	9327516.208	-8.343
704243.039	9326846.556	-8.343
704242.038	9326867.576	-8.343
706034.783	9327538.229	-8.344
705922.674	9327464.157	-8.347
705922.674	9327444.138	-8.347
703942.747	9326651.366	-8.348
703941.746	9326671.385	-8.348
703940.745	9326692.406	-8.348
703939.744	9326712.425	-8.348
703938.743	9326733.446	-8.348
702673.511	9324038.823	-8.348
703937.742	9326774.486	-8.349
702758.594	9326461.181	-8.35
704830.611	9327033.738	-8.351
702761.597	9326523.241	-8.351
702762.598	9326544.262	-8.351
701950.808	9326866.575	-8.351
701951.809	9326887.596	-8.351
702761.597	9326564.281	-8.352
702756.592	9326604.32	-8.352
701951.809	9326908.616	-8.352
705322.09	9327284.983	-8.354
705320.088	9327240.94	-8.354
705319.087	9327220.92	-8.354
704836.617	9326642.357	-8.355
704833.614	9326621.337	-8.355
704633.419	9326871.58	-8.358
704634.42	9326850.56	-8.358
701761.624	9326955.662	-8.358
701761.624	9326975.682	-8.358
701760.623	9326998.704	-8.358
701348.221	9327127.83	-8.358
701348.221	9327149.851	-8.358
701350.223	9327171.873	-8.358
701349.222	9327193.894	-8.358
704634.42	9326828.538	-8.359
704632.418	9326805.516	-8.359
704633.419	9326782.494	-8.359
701757.62	9327058.763	-8.359
701551.419	9327032.737	-8.365
701551.419	9327054.759	-8.365
701551.419	9327075.779	-8.366
702674.512	9323936.723	-8.37
704437.228	9327061.765	-8.37
704440.231	9326948.655	-8.371
704441.232	9326925.633	-8.371
702457.301	9326657.372	-8.374
703055.884	9326489.208	-8.375
702451.295	9326549.267	-8.375
700865.752	9327293.991	-8.375
700862.749	9327316.013	-8.375
703051.88	9326509.228	-8.376
703053.882	9326529.247	-8.376
703053.882	9326552.269	-8.376
703741.551	9326545.263	-8.377
703743.553	9326565.282	-8.378
703745.555	9326587.304	-8.378
703746.556	9326607.323	-8.378
703749.559	9326627.343	-8.378
703260.082	9326470.19	-8.378
703259.082	9326490.209	-8.378
703256.079	9326508.227	-8.378
703255.078	9326550.268	-8.378
700761.65	9327285.984	-8.379
705819.574	9327406.101	-8.381
705814.569	9327426.12	-8.381
705807.562	9327446.14	-8.382
702055.91	9326814.525	-8.382
702672.511	9324059.843	-8.383
704731.515	9326676.39	-8.383
702057.912	9326793.504	-8.383
702055.91	9326733.446	-8.383
704031.834	9326910.618	-8.384
704033.836	9326783.495	-8.384
704032.835	9326740.453	-8.385
704034.837	9326719.432	-8.385
701150.028	9327186.887	-8.386
703544.359	9326627.343	-8.387
702157.009	9326818.529	-8.39
701853.713	9326996.702	-8.39
701070.952	9327226.926	-8.39
701852.713	9326974.681	-8.391
701848.709	9326954.661	-8.391
701645.511	9327084.788	-8.392
701643.509	9327064.768	-8.392
701644.51	9327042.747	-8.392
701645.511	9327020.725	-8.393
705623.383	9327307.004	-8.394
705219.99	9327227.927	-8.394
705626.386	9327327.024	-8.395
705624.384	9327347.043	-8.395
705131.905	9326529.247	-8.396
705129.903	9326550.268	-8.396
