703511.2	9323428.66	-2.75
703511.55	9323426.47	-2.73
703512.86	9324094.91	-4.94
703512.54	9324097.19	-4.73
703513.31	9324092.77	-4.64
703513.05	9324036.26	-4.59
703512.68	9324025.51	-4.52
703512.61	9324027.64	-4.46
703512.61	9324031.44	-4.44
703513.58	9324090.77	-4.43
703513.27	9324038.54	-4.4
703512.53	9324029.64	-4.34
703513.34	9324019.43	-4.32
703513.55	9324017.42	-4.32
703513.4	9324040.64	-4.29
703513.04	9324021.38	-4.28
703512.73	9324033.95	-4.24
703512.8	9324023.39	-4.22
703513.48	9323883.22	-4.04
703512.56	9323889.27	-4.02
703513.23	9323885.13	-3.87
703512.86	9323887.23	-3.73
703512.55	9323666.44	-3.61
703513.4	9323650.29	-3.55
703512.63	9323664.02	-3.54
703513.04	9323656.86	-3.54
703513.37	9323652.47	-3.51
703513.15	9323654.6	-3.48
703512.74	9323661.65	-3.4
703512.88	9323659.17	-3.14
703512.94	9323417.27	-2.89
703513.53	9323412.92	-2.86
703513.24	9323415.09	-2.79
703513.48	9323433.17	-2.69
703512.66	9323419.47	-2.66
703514.69	9324053.05	-4.9
703514.9	9324011.06	-4.83
703514.55	9324050.53	-4.71
703514.9	9324055.45	-4.55
703514.02	9324015.42	-4.52
703514.33	9324082.82	-4.49
703514.9	9324078.14	-4.49
703513.86	9324088.89	-4.42
703514.2	9324048.13	-4.4
703514.31	9324013.24	-4.4
703514.03	9324046.16	-4.35
703513.7	9324042.58	-4.32
703513.92	9324044.39	-4.12
703514.03	9324086.97	-4.08
703514.14	9324084.93	-4.08
703514.63	9324080.4	-3.97
703514.49	9323877.35	-3.92
703514.08	9323879.38	-3.81
703514.85	9323875.39	-3.68
703514.14	9323642.16	-3.61
703513.74	9323881.34	-3.61
703514.21	9323639.54	-3.57
703514.33	9323636.69	-3.53
703513.79	9323648.27	-3.51
703514.57	9323633.83	-3.49
703514.03	9323644.33	-3.37
703514.55	9323631.3	-3.37
703513.94	9323646.29	-3.34
703514.73	9323627.84	-3.2
703514.64	9323629.36	-3.17
703514.13	9323408.54	-2.83
703514.48	9323406.37	-2.83
703513.83	9323410.71	-2.79
703514.8	9323404.12	-2.75
703515.4	9324065.65	-4.73
703515.27	9324068.17	-4.63
703515.27	9324070.41	-4.6
703515.27	9324063.12	-4.57
703515.66	9324008.87	-4.49
703515.2	9324072.3	-4.42
703515.22	9324060.91	-4.42
703515.06	9324057.43	-4.36
703514.99	9324076.02	-4.34
703515.18	9324074.12	-4.34
703516.02	9323867.53	-4.3
703515.07	9324059.17	-4.15
703515.21	9323873.43	-3.99
703515.75	9323869.36	-3.98
703515.43	9323871.44	-3.83
703515.38	9323621.8	-3.67
703515.21	9323624.3	-3.61
703515.52	9323618.65	-3.58
703515.73	9323615.79	-3.49
703516.11	9323613.17	-3.49
703514.94	9323626.32	-3.23
703515.4	9323397.67	-2.82
703515.71	9323395.56	-2.79
703515.64	9323434.28	-2.73
703515.01	9323401.92	-2.66
703515.18	9323399.77	-2.66
703516.05	9323393.26	-2.51
703517.36	9324003.08	-4.35
703516.8	9324004.92	-4.29
703516.18	9324006.77	-4.04
703516.43	9323865.74	-3.96
703517.08	9323861.75	-3.92
703516.77	9323863.79	-3.67
703517.15	9323605.82	-3.34
703516.97	9323607.78	-3.26
703516.29	9323611.3	-3.2
703516.69	9323609.55	-3.18
703516.85	9323385.95	-2.78
703517.33	9323381.28	-2.76
703516.35	9323390.89	-2.73
703516.64	9323388.45	-2.72
703517.05	9323383.54	-2.7
703517.8	9324001.06	-4.34
703518.21	9323998.89	-4.31
703517.74	9323857.84	-4.17
703518.16	9323856.02	-3.86
703517.48	9323603.54	-3.7
703517.51	9323859.7	-3.7
703518.49	9323854.08	-3.61
703518.25	9323598.45	-3.46
703517.78	9323600.97	-3.45
703518.54	9323371.23	-3
703517.78	9323435.44	-2.83
703518.26	9323373.61	-2.79
703518.07	9323375.59	-2.66
703517.65	9323379.27	-2.6
703517.89	9323377.4	-2.6
703518.78	9323996.74	-4.65
703519.33	9323994.59	-4.4
703519.89	9323992.62	-4.25
703518.88	9323852.15	-4.04
703519.36	9323850.4	-3.89
703519.64	9323848.7	-3.71
703518.81	9323596.12	-3.43
703519.29	9323593.86	-3.33
703519.7	9323591.88	-3.21
703518.95	9323368.52	-2.94
703519.81	9323362.85	-2.83
703519.71	9323436.87	-2.79
703519.43	9323365.63	-2.78
703520.87	9324340.21	-5.24
703520.87	9324286.45	-5.04
703520.43	9324342.11	-5.01
703520.9	9324284.48	-4.98
703520.96	9324288.49	-4.94
703521.04	9324282.52	-4.79
703520.46	9323990.6	-4.31
703520.83	9323988.61	-4.28
703520.62	9323844.62	-4.02
703520.99	9323842.82	-3.99
703520.1	9323846.69	-3.62
703521.06	9323585.95	-3.33
703520.57	9323588.05	-3.27
703520.15	9323589.95	-3.18
703520.04	9323360.49	-2.67
703520.52	9323356.88	-2.6
703520.28	9323358.57	-2.58
703520.79	9323355.17	-2.49
703521.49	9324278.48	-5.22
703522.15	9324335.01	-5.19
703521.55	9324292.39	-5.16
703521.86	9324294.45	-5.14
703522.28	9324296.45	-5.12
703521.23	9324290.52	-5.05
703521.32	9324338.52	-5.03
703521.2	9324280.38	-4.95
703521.82	9324336.73	-4.95
703522.01	9324276.72	-4.75
703521.88	9323981.99	-4.4
703521.51	9323984.18	-4.35
703521.19	9323986.39	-4.31
703522.36	9323979.92	-4.04
703521.39	9323840.89	-3.81
703521.74	9323838.98	-3.77
703522.14	9323837.04	-3.62
703522.13	9323581.37	-3.43
703521.56	9323583.69	-3.11
703521.72	9323350.97	-2.98
703522.22	9323348.37	-2.95
703521.23	9323353.29	-2.82
703521.77	9323438.17	-2.7
703522.68	9324298.46	-5.1
703523.16	9324300.53	-5.04
703523.03	9324272.82	-5.03
703523.64	9324302.72	-4.97
703523.25	9324331.68	-4.97
703522.78	9324333.39	-4.82
703522.54	9324274.78	-4.72
703523.27	9323971.54	-4.31
703523.07	9323973.75	-4.29
703522.72	9323977.91	-4.24
703522.91	9323975.85	-4.19
703522.87	9323833.41	-4.01
703522.46	9323835.15	-3.96
703523.45	9323829.68	-3.83
703523.64	9323969.44	-3.7
703523.16	9323831.55	-3.7
703523.31	9323576.5	-3.36
703522.73	9323578.86	-3.27
703522.74	9323345.63	-2.92
703523.2	9323342.88	-2.82
703523.65	9323340.39	-2.75
703523.76	9324329.83	-5.21
703524.81	9324324.34	-5.05
703524.39	9324306.64	-5.04
703524.53	9324308.59	-5.04
703524.18	9324328.07	-4.98
703523.68	9324270.94	-4.92
703523.94	9324304.78	-4.91
703524.33	9324269.05	-4.89
703524.49	9324326.24	-4.86
703524.77	9324310.72	-4.8
703524.27	9323963.27	-4.62
703524.36	9323961.09	-4.31
703524.81	9323956.85	-4.22
703524.54	9323958.89	-4.19
703524.09	9323965.36	-4.12
703523.74	9323827.71	-3.95
703523.95	9323967.39	-3.91
703524.32	9323823.93	-3.89
703524.04	9323825.89	-3.84
703524.85	9323820.19	-3.83
703524.55	9323822.05	-3.77
703523.82	9323574.29	-3.21
703524.4	9323572.21	-3.21
703523.76	9323439.5	-2.75
703524.56	9323336.37	-2.69
703524.1	9323338.25	-2.66
703525.18	9324314.72	-5.25
703524.99	9324322.53	-5.25
703525.28	9324316.85	-5.07
703525.06	9324312.81	-5.01
703525.07	9324320.8	-4.98
703524.98	9324267.06	-4.94
703525.68	9324265.1	-4.86
703525.24	9324318.96	-4.82
703525.51	9324342.66	-4.76
703525.82	9323950.55	-4.29
703525.47	9323952.78	-4.25
703525.07	9323954.87	-4.19
703525.99	9323948.39	-4.13
703525.7	9323812.39	-3.96
703525.46	9323814.34	-3.89
703525.88	9323810.59	-3.84
703525.32	9323816.36	-3.71
703526.09	9323808.6	-3.7
703525.05	9323818.34	-3.64
703525.69	9323566.43	-3.24
703524.95	9323570.26	-3.18
703525.32	9323568.39	-3.14
703525.84	9323330.45	-2.75
703525.44	9323441.24	-2.75
703524.96	9323334.55	-2.66
703525.38	9323332.55	-2.66
703526.64	9324340.62	-5.12
703527.17	9324261.61	-4.95
703526.46	9324263.4	-4.86
703526.36	9323946.32	-4.47
703527.35	9323940.49	-4.16
703526.62	9323944.34	-4.12
703526.92	9323942.42	-4.07
703526.47	9323804.68	-4.01
703527.23	9323794.91	-3.99
703526.9	9323798.94	-3.84
703527.04	9323762.97	-3.83
703527.27	9323745.48	-3.81
703527.18	9323772.61	-3.81
703527.24	9323792.82	-3.78
703526.81	9323757.17	-3.78
703527.06	9323770.67	-3.78
703526.39	9323806.62	-3.78
703527.24	9323776.64	-3.77
703527.25	9323790.82	-3.74
703526.88	9323751.48	-3.73
703526.85	9323753.48	-3.73
703526.97	9323760.95	-3.71
703527.09	9323766.94	-3.71
703527.2	9323774.65	-3.7
703527.07	9323764.95	-3.68
703527.11	9323747.49	-3.68
703527.13	9323768.78	-3.67
703526.85	9323759.05	-3.64
703526.92	9323749.48	-3.62
703527.09	9323796.84	-3.62
703526.59	9323802.93	-3.61
703526.66	9323561.67	-3.48
703526.17	9323564.13	-3.46
703526.77	9323800.98	-3.46
703526.84	9323755.27	-3.44
703527.05	9323558.99	-3.26
703526.37	9323328.22	-2.79
703526.9	9323325.82	-2.78
703527.36	9323442.52	-2.75
703527.75	9324338.45	-5.21
703527.99	9324259.86	-4.91
703528.26	9323936.26	-4.29
703527.81	9323938.42	-4.25
703528	9323739.66	-3.9
703527.41	9323778.68	-3.86
703527.53	9323784.82	-3.84
703527.47	9323786.79	-3.84
703527.42	9323788.77	-3.68
703527.77	9323741.58	-3.65
703528.34	9323737.76	-3.64
703527.51	9323743.55	-3.59
703527.49	9323780.76	-3.56
703527.5	9323782.74	-3.44
703527.55	9323556.56	-3.21
703528.53	9323550.94	-3.18
703527.9	9323554.49	-3.11
703528.09	9323552.68	-2.94
703527.43	9323323.49	-2.78
703527.94	9323321.15	-2.75
703528.42	9323318.94	-2.7
703528.95	9324336.35	-5.03
703529.55	9324256.29	-4.95
703528.85	9324258.09	-4.66
703528.72	9323933.92	-4.24
703529.23	9323931.65	-4.24
703529.63	9323929.46	-4.04
703529.53	9323731.99	-3.78
703528.78	9323735.95	-3.71
703529.16	9323733.96	-3.59
703529.43	9323546.53	-3.38
703529.87	9323543.92	-3.35
703528.93	9323548.9	-3.28
703529.09	9323444.07	-2.82
703529.62	9323314.56	-2.76
703528.99	9323316.79	-2.73
703530.33	9324254.48	-4.95
703530.09	9324334.51	-4.93
703530.97	9324252.75	-4.8
703531.15	9323923.94	-4.13
703530.62	9323925.76	-4.07
703530.16	9323927.54	-3.98
703530.44	9323728.37	-3.62
703530.03	9323730.1	-3.62
703530.9	9323726.53	-3.5
703530.17	9323541.24	-3.24
703530.48	9323538.82	-3.15
703530.91	9323536.67	-3.09
703530.7	9323445.84	-2.86
703530.22	9323312.27	-2.83
703531.53	9324250.97	-4.94
703531.45	9324332.77	-4.9
703532.09	9324249.13	-4.72
703532.32	9323919.86	-4.38
703531.73	9323921.98	-4.18
703532.33	9323720.82	-3.78
703531.93	9323722.66	-3.46
703531.45	9323724.61	-3.46
703532.2	9323531.09	-3.16
703531.71	9323532.98	-3.06
703531.22	9323534.79	-2.94
703533.32	9324243.49	-5.09
703533.23	9324224.4	-5.09
703533.34	9324205.73	-5.07
703532.79	9324331.03	-5.06
703533.45	9324241.65	-5.04
703532.97	9324222.53	-4.94
703533.63	9324230.17	-4.94
703533.21	9324214.23	-4.92
703533.15	9324212.19	-4.85
703533.27	9324207.78	-4.82
703533.14	9324216.14	-4.82
703533.25	9324218.28	-4.82
703532.45	9324247.29	-4.76
703533.01	9324245.35	-4.7
703533.45	9324228.38	-4.67
703533.58	9324203.84	-4.6
703533.41	9324226.3	-4.6
703533.2	9324210.04	-4.52
703533.37	9324220.47	-4.45
703532.83	9323917.54	-4.21
703533.19	9323915.22	-4.18
703533.53	9323913.01	-4.15
703533.37	9323716.88	-3.65
703532.89	9323718.87	-3.46
703533.08	9323526.29	-3.38
703533.51	9323523.66	-3.28
703532.62	9323528.8	-3.16
703532.47	9323447.59	-2.63
703534.78	9324195.69	-5.22
703534.06	9324329.25	-5
703533.85	9324235.79	-4.94
703533.88	9324237.81	-4.85
703534.09	9324199.83	-4.82
703533.77	9324231.96	-4.8
703533.93	9324234.03	-4.76
703533.81	9324201.81	-4.75
703534.49	9324197.68	-4.6
703533.77	9324239.82	-4.45
703533.84	9323910.99	-4.07
703534.76	9323907.37	-4.06
703534.23	9323909.15	-3.97
703534.47	9323712.99	-3.55
703533.86	9323714.89	-3.18
703534.06	9323521.21	-3.1
703534.68	9323519.04	-3
703533.92	9323449.48	-2.67
703535.58	9324327.46	-4.91
703535.18	9324193.78	-4.89
703535.54	9324191.95	-4.54
703536.09	9324189.96	-4.52
703535.69	9323901.2	-4.18
703535.4	9323903.47	-4.16
703536.14	9323896.56	-4.09
703535.07	9323905.49	-4
703535.96	9323898.85	-3.85
703535.95	9323707.19	-3.67
703534.92	9323711.11	-3.55
703535.48	9323709.19	-3.49
703535.09	9323517.19	-3.2
703535.88	9323511.24	-3.16
703535.66	9323513.36	-3.06
703535.37	9323515.29	-2.98
703535.32	9323451.23	-2.69
703537.09	9324325.75	-4.9
703537.18	9324186.31	-4.83
703536.61	9324188.05	-4.7
703537.32	9323879.91	-4.18
703536.83	9323890.45	-4.13
703537.29	9323882.27	-4.1
703537.35	9323877.57	-4.09
703536.52	9323892.56	-4.07
703536.3	9323894.48	-4.04
703537.04	9323888.41	-4.01
703537.19	9323884.41	-3.94
703537.17	9323886.44	-3.92
703537.4	9323699.22	-3.84
703536.38	9323705.27	-3.59
703536.72	9323703.24	-3.44
703537.1	9323701.2	-3.43
703536.17	9323508.65	-3.22
703537.01	9323503.35	-3.16
703537.38	9323501.01	-3.04
703536.6	9323505.99	-3
703536.85	9323453.07	-2.79
703537.71	9324184.59	-4.72
703538.25	9324182.8	-4.69
703538.53	9323860.69	-4.12
703538.42	9323863.11	-4.1
703537.56	9323875.34	-4.07
703537.87	9323873.21	-4.06
703538.54	9323858.21	-3.92
703537.98	9323869.18	-3.86
703538.14	9323865.33	-3.7
703538.3	9323691.56	-3.68
703538.03	9323867.29	-3.57
703537.65	9323697.43	-3.52
703538.16	9323693.47	-3.5
703537.9	9323871.13	-3.46
703538.49	9323689.66	-3.41
703537.85	9323695.49	-3.4
703538.36	9323491.07	-3.16
703538.14	9323493.37	-3.06
703537.55	9323499	-2.91
703537.95	9323495.4	-2.86
703537.73	9323497.21	-2.76
703537.92	9323455.19	-2.49
703538.68	9324324	-4.99
703539.37	9324179.35	-4.7
703538.84	9324181.09	-4.24
703539.64	9323848.36	-3.8
703539.02	9323853.6	-3.77
703539.27	9323851.72	-3.77
703539.46	9323850.06	-3.69
703538.86	9323685.54	-3.67
703539.8	9323846.32	-3.61
703539.84	9323658.59	-3.55
703538.98	9323683.6	-3.55
703539.7	9323660.39	-3.53
703538.76	9323855.8	-3.51
703539.07	9323681.76	-3.5
703539.59	9323665.97	-3.49
703539.6	9323667.83	-3.49
703539.64	9323662.21	-3.47
703539.4	9323673.77	-3.46
703539.28	9323677.56	-3.43
703539.51	9323669.76	-3.4
703539.41	9323671.82	-3.35
703539.65	9323664.08	-3.34
703538.77	9323687.64	-3.32
703539.13	9323679.75	-3.29
703539.37	9323675.68	-3.28
703538.7	9323488.42	-3.21
703539.1	9323485.64	-3.21
703539.33	9323482.95	-3.01
703539.89	9323472.93	-2.93
703539.77	9323475.05	-2.89
703539.63	9323476.87	-2.83
703539.4	9323480.59	-2.82
703539.9	9323439.35	-2.79
703539.05	9323457.16	-2.72
703539.48	9323478.63	-2.72
703540.22	9324322.34	-5.05
703540.51	9324176.02	-4.82
703539.98	9324177.68	-4.75
703541.08	9324174.26	-4.66
703540.03	9323843.84	-4.25
703540.7	9323838.39	-4.06
703540.37	9323841.06	-3.82
703541.07	9323836.09	-3.82
703540.05	9323656.61	-3.55
703540.87	9323650.95	-3.47
703540.24	9323654.72	-3.41
703540.46	9323652.89	-3.31
703540.09	9323470.61	-2.98
703540	9323436.96	-2.97
703540.79	9323419.19	-2.92
703540.15	9323468.17	-2.91
703540.32	9323454.6	-2.91
703539.99	9323443.7	-2.88
703540.04	9323434.52	-2.86
703540.14	9323461.22	-2.85
703540.53	9323421.6	-2.85
703540.12	9323465.7	-2.83
703540.99	9323416.59	-2.83
703540.28	9323456.91	-2.82
703540.13	9323463.58	-2.8
703540.18	9323459.12	-2.8
703539.95	9323441.53	-2.79
703540.24	9323449.98	-2.79
703540.29	9323452.26	-2.76
703540.05	9323432.07	-2.76
703540.39	9323423.79	-2.76
703540.12	9323429.82	-2.75
703540.11	9323427.7	-2.7
703539.91	9323445.77	-2.7
703540.21	9323425.76	-2.69
703540.06	9323447.82	-2.66
703541.92	9324170.68	-5.07
703541.63	9324320.78	-4.94
703542.31	9324169.01	-4.66
703541.56	9324172.47	-4.42
703542.34	9323826.29	-4.03
703541.92	9323828.63	-3.8
703541.66	9323830.66	-3.79
703541.28	9323834.16	-3.7
703541.51	9323832.47	-3.66
703541.26	9323649.15	-3.43
703542.11	9323645.54	-3.25
703542.28	9323514.43	-3.19
703541.61	9323647.38	-3.13
703542.05	9323516.39	-2.97
703541.76	9323518.44	-2.88
703541.23	9323461.43	-2.79
703541.23	9323414.15	-2.79
703542.23	9323405.82	-2.67
703542.15	9323463.46	-2.64
703541.7	9323409.78	-2.6
703541.94	9323407.8	-2.6
703541.53	9323411.92	-2.36
703543.03	9324319.29	-4.93
703543.38	9324161.69	-4.8
703543.08	9324163.43	-4.79
703542.54	9324167.3	-4.64
703543.33	9324159.93	-4.58
703543.56	9324081.7	-4.57
703542.87	9324165.36	-4.52
703543.57	9324083.6	-4.48
703543.63	9324085.57	-4.42
703543.53	9324158.17	-4.36
703542.78	9323823.79	-3.91
703543.11	9323821.38	-3.58
703543.43	9323819.09	-3.49
703542.6	9323643.6	-3.34
703543.45	9323639.9	-3.28
703543.37	9323506.88	-3.22
703542.97	9323641.73	-3.03
703542.54	9323512.65	-3.01
703543.06	9323508.71	-3
703542.73	9323510.85	-3
703543.05	9323465.52	-2.88
703543.64	9323397.03	-2.79
703542.94	9323401.71	-2.75
703543.26	9323399.41	-2.7
703542.56	9323403.88	-2.67
703543.65	9323467.58	-2.67
703544.58	9324317.74	-5
703543.79	9324154.66	-4.91
703544.05	9324151.29	-4.85
703544.52	9324146.17	-4.76
703544.35	9324148.1	-4.73
703544.15	9324072.58	-4.72
703544.2	9324149.75	-4.66
703543.97	9324091.54	-4.6
703544.35	9324097.31	-4.6
703543.86	9324076.22	-4.52
703543.69	9324079.94	-4.51
703544.05	9324093.54	-4.51
703544.64	9324099.15	-4.48
703543.77	9324156.28	-4.42
703544.88	9324142.17	-4.42
703544.79	9324144.24	-4.42
703544.59	9324070.81	-4.4
703543.82	9324089.64	-4.4
703544.7	9324101.14	-4.4
703543.74	9324087.58	-4.39
703543.97	9324153.07	-4.36
703544.03	9324074.29	-4.36
703543.68	9324078.05	-4.3
703544.19	9324095.43	-4.27
703544.14	9323815.07	-3.73
703544.5	9323813.24	-3.69
703544.3	9323636.27	-3.53
703543.83	9323817.07	-3.42
703543.95	9323638.07	-3.38
703544.74	9323634.46	-3.24
703543.67	9323504.88	-3.1
703544.01	9323502.96	-2.97
703544.89	9323498.7	-2.94
703544.47	9323500.8	-2.88
703544.34	9323469.64	-2.76
703543.93	9323394.61	-2.75
703544.22	9323392.22	-2.72
703544.41	9323389.92	-2.63
703544.62	9323387.88	-2.61
703544.84	9323385.85	-2.54
703546.09	9324316.05	-5.08
703545.58	9324106.98	-4.67
703545.19	9324140.04	-4.67
703545.43	9324138.15	-4.61
703546.15	9324063.43	-4.59
703545.8	9324134.23	-4.57
703545.27	9324067.23	-4.54
703546.1	9324132.18	-4.54
703545.34	9324104.92	-4.52
703545.53	9324136.24	-4.51
703545.04	9324103.05	-4.48
703546.11	9324111.03	-4.45
703545.89	9324108.99	-4.39
703544.95	9324069.04	-4.34
703545.74	9324065.37	-4.23
703545.81	9323806.94	-4.13
703545.42	9323809.28	-3.88
703544.97	9323811.38	-3.82
703546.07	9323624.8	-3.68
703545.36	9323630.54	-3.49
703545.14	9323632.55	-3.41
703545.62	9323628.77	-3.22
703545.85	9323626.73	-3.19
703545.18	9323496.7	-3.13
703545.6	9323494.76	-2.86
703545.76	9323361.04	-2.86
703544.95	9323471.67	-2.83
703545.69	9323367.96	-2.83
703545.62	9323370.12	-2.82
703545.95	9323356.67	-2.82
703545.68	9323363.25	-2.8
703546.03	9323478.11	-2.79
703545.82	9323475.78	-2.78
703545.44	9323473.75	-2.76
703545.44	9323376.65	-2.75
703545.87	9323492.82	-2.73
703545.46	9323374.35	-2.73
703544.99	9323383.7	-2.72
703545.35	9323379.05	-2.72
703545.21	9323381.4	-2.7
703545.47	9323372.26	-2.69
703545.63	9323365.56	-2.69
703545.74	9323358.88	-2.57
703546.21	9324130.29	-4.67
703546.33	9324114.85	-4.63
703546.6	9324124.6	-4.58
703546.39	9324128.41	-4.57
703546.28	9324112.91	-4.51
703546.6	9324118.72	-4.48
703546.73	9324120.69	-4.48
703546.72	9324122.63	-4.48
703546.55	9324061.45	-4.47
703546.6	9324126.5	-4.45
703547.12	9324059.5	-4.19
703546.3	9323804.49	-4.03
703546.57	9324116.79	-4
703546.67	9323801.94	-3.88
703547.03	9323799.74	-3.76
703546.23	9323622.83	-3.43
703546.34	9323586.25	-3.43
703546.81	9323614.71	-3.38
703546.77	9323616.62	-3.35
703546.58	9323618.69	-3.34
703546.38	9323588.26	-3.32
703546.86	9323598.32	-3.32
703546.42	9323579.91	-3.31
703547.04	9323567.52	-3.29
703546.94	9323569.64	-3.28
703547	9323606.67	-3.28
703546.78	9323596.39	-3.25
703546.97	9323610.71	-3.25
703546.44	9323578	-3.24
703546.63	9323594.5	-3.24
703546.42	9323620.88	-3.24
703546.79	9323571.77	-3.22
703546.44	9323590.44	-3.19
703546.63	9323573.93	-3.16
703546.9	9323600.31	-3.16
703546.89	9323612.73	-3.13
703546.46	9323576.03	-3.13
703546.31	9323488.56	-3.1
703546.28	9323584.16	-3.1
703547.04	9323604.59	-3.09
703547.13	9323343.62	-3
703547.05	9323608.71	-2.95
703546.51	9323592.54	-2.95
703547.23	9323565.46	-2.95
703546.18	9323490.57	-2.94
703546.99	9323602.46	-2.94
703546.42	9323482.28	-2.89
703546.22	9323354.35	-2.89
703546.36	9323582.16	-2.85
703546.42	9323484.51	-2.83
703546.38	9323486.59	-2.82
703546.4	9323352	-2.82
703546.31	9323480.24	-2.76
703546.64	9323349.77	-2.69
703546.9	9323345.7	-2.69
703546.81	9323347.73	-2.67
703547.41	9324314.29	-5
703548.5	9324312.58	-4.91
703548.1	9324055.58	-4.42
703548.45	9324051.87	-4.38
703547.54	9324057.45	-4.16
703548.57	9324053.67	-3.95
703547.63	9323797.81	-3.7
703548.13	9323796	-3.66
703548.37	9323794.2	-3.66
703548.06	9323559.33	-3.21
703548.38	9323557.43	-3.19
703547.78	9323561.29	-3.15
703547.5	9323563.34	-3.09
703548.06	9323338.66	-2.89
703547.55	9323341.23	-2.88
703548.52	9323336.1	-2.8
703549.37	9324310.85	-4.99
703549.57	9324228.39	-4.93
703548.91	9324217.26	-4.85
703549.34	9324226.05	-4.82
703549.17	9324223.77	-4.82
703549.16	9324215.18	-4.81
703549.9	9324232.71	-4.76
703549.68	9324230.66	-4.76
703548.98	9324221.59	-4.72
703549.58	9324213.04	-4.72
703548.84	9324219.39	-4.62
703549.74	9324210.79	-4.62
703549.71	9324045.94	-4.51
703549.31	9324047.85	-4.41
703548.86	9324049.85	-4.19
703549.01	9323790.12	-3.91
703549.39	9323787.71	-3.88
703549.77	9323785.29	-3.85
703548.68	9323792.27	-3.64
703549.69	9323549.18	-3.21
703548.7	9323555.4	-3.09
703549.02	9323553.29	-3.07
703549.31	9323551.15	-3.06
703548.93	9323333.78	-2.76
703549.27	9323331.83	-2.66
703549.63	9323330.02	-2.6
703550.88	9324307.26	-5
703550.17	9324309.05	-4.99
703550.45	9324206.2	-4.88
703549.99	9324208.44	-4.79
703550.71	9324236.69	-4.78
703550.33	9324234.64	-4.76
703550.83	9324203.96	-4.69
703551.09	9324038.51	-4.65
703550.14	9324044.19	-4.38
703550.75	9324040.3	-4.27
703550.43	9324042.3	-4.26
703550.77	9323774.59	-3.91
703551.03	9323768.48	-3.88
703550.35	9323778.52	-3.83
703549.97	9323782.87	-3.8
703550.08	9323780.62	-3.73
703550.89	9323770.68	-3.7
703550.53	9323776.48	-3.69
703550.81	9323772.67	-3.58
703551.07	9323541.11	-3.28
703550.75	9323543.09	-3.15
703550.02	9323547.25	-2.95
703550.37	9323545.06	-2.89
703550.59	9323324	-2.73
703550.34	9323326.22	-2.72
703550.04	9323328.2	-2.64
703552.11	9324295.16	-5.17
703551.82	9324303.44	-5.09
703551.41	9324278.12	-5.09
703551.95	9324290.91	-5
703552.08	9324301.34	-4.99
703552.18	9324260.97	-4.99
703551.75	9324288.59	-4.97
703552.04	9324293.11	-4.94
703551.32	9324280.47	-4.94
703552.24	9324249.96	-4.93
703552.19	9324247.97	-4.92
703552.19	9324299.29	-4.91
703551.97	9324263.13	-4.91
703552.07	9324245.96	-4.91
703551.65	9324241.5	-4.91
703552.29	9324256.48	-4.91
703551.89	9324243.9	-4.91
703551.24	9324239.07	-4.91
703551.35	9324271.43	-4.9
703551.61	9324267.31	-4.9
703551.39	9324275.77	-4.88
703552.21	9324254.34	-4.88
703551.35	9324269.32	-4.87
703551.35	9324273.53	-4.85
703551.51	9324286.39	-4.84
703552.1	9324252.06	-4.84
703551.78	9324265.22	-4.84
703552.15	9324258.73	-4.82
703551.29	9324282.59	-4.81
703551.3	9324284.47	-4.75
703552.13	9324297.23	-4.71
703551.36	9324201.9	-4.66
703551.91	9324199.92	-4.66
703551.4	9324305.37	-4.62
703552.23	9324197.79	-4.62
703552	9324032.96	-4.41
703552.13	9324031.08	-4.29
703551.74	9324034.77	-4.29
703551.32	9324036.74	-4.23
703551.19	9323765.93	-3.95
703551.4	9323760.62	-3.86
703551.24	9323763.19	-3.83
703552.21	9323741.46	-3.79
703551.69	9323752.9	-3.76
703551.82	9323750.8	-3.76
703552	9323748.54	-3.72
703552.11	9323746.18	-3.72
703552.13	9323743.79	-3.69
703551.47	9323758.38	-3.66
703551.53	9323754.73	-3.6
703551.38	9323756.45	-3.39
703551.43	9323539.25	-3.07
703552.31	9323534.98	-2.92
703551.81	9323537.22	-2.86
703553.11	9324193.27	-4.81
703552.61	9324195.58	-4.78
703553.36	9324191.25	-4.76
703552.94	9324027.24	-4.44
703552.71	9324029.13	-4.32
703553.62	9323726.79	-3.83
703552.47	9323739.13	-3.82
703553.34	9323729.04	-3.6
703553.16	9323733.03	-3.58
703552.67	9323736.88	-3.54
703553.24	9323731.11	-3.52
703552.87	9323734.88	-3.48
703552.76	9323533	-3.31
703553.28	9323531.15	-3.16
703554.88	9324184.67	-4.82
703554.39	9324186.95	-4.78
703553.89	9324189.12	-4.63
703554.51	9323993.42	-4.57
703554.11	9323999.31	-4.44
703554.13	9324001.35	-4.33
703554.04	9324011.46	-4.32
703554.06	9324017.35	-4.32
703553.89	9324023.25	-4.32
703554.71	9323991.42	-4.26
703554.29	9323997.36	-4.26
703553.9	9324021.32	-4.26
703553.69	9324025.08	-4.26
703553.98	9324019.35	-4.22
703554.07	9324005.48	-4.2
703554.03	9324015.53	-4.19
703554.06	9324009.42	-4.17
703554.06	9324013.58	-4.16
703554.05	9324003.51	-4.14
703554.45	9323995.46	-4.07
703554.03	9324007.48	-3.9
703553.93	9323724.39	-3.83
703554.88	9323989.41	-3.75
703554.59	9323717.63	-3.66
703554.22	9323721.97	-3.58
703554.85	9323715.44	-3.57
703554.43	9323719.68	-3.55
703554.71	9323525.16	-3.12
703554.2	9323527.1	-3
703553.73	9323529.23	-3
703555.98	9324180.15	-4.76
703555.35	9324182.38	-4.75
703555.56	9323983.18	-4.36
703555.35	9323985.17	-4.36
703555.08	9323987.28	-4.04
703555.73	9323981.29	-4.01
703556.01	9323979.17	-3.95
703555.61	9323711.33	-3.51
703555.86	9323709.29	-3.51
703555.21	9323713.34	-3.46
703555.94	9323707.21	-3.43
703555.79	9323521.32	-3.09
703555.26	9323523.29	-3.04
703556.41	9324177.96	-5.23
703556.69	9324175.84	-4.51
703557.4	9324173.86	-4.51
703557.36	9323968.97	-4.38
703556.54	9323975.07	-4.3
703557.16	9323970.98	-4.11
703556.8	9323973.11	-4.04
703556.3	9323977.08	-3.99
703556.65	9323702.66	-3.82
703556.23	9323705.05	-3.7
703557.09	9323700.13	-3.63
703556.93	9323517.38	-2.91
703556.35	9323519.31	-2.85
703558.65	9324167.09	-4.91
703557.74	9324171.82	-4.76
703558.19	9324169.55	-4.66
703558.05	9323964.98	-4.1
703557.78	9323967.04	-4.08
703558.34	9323962.94	-3.89
703557.58	9323697.83	-3.48
703558.01	9323695.75	-3.46
703558.22	9323693.85	-3.43
703558.51	9323692.01	-3.39
703557.46	9323515.43	-3.12
703557.89	9323513.54	-3
703558.41	9323511.12	-2.86
703559.08	9324164.54	-4.69
703559.67	9324158.14	-4.6
703559.25	9324162.21	-4.54
703559.37	9324160.07	-4.54
703559.06	9323959.04	-4.17
703558.8	9323960.97	-4.17
703559.71	9323954.95	-4.05
703559.71	9323685.46	-3.64
703559.32	9323687.79	-3.58
703559.29	9323956.99	-3.58
703558.94	9323689.98	-3.52
703559.58	9323505.87	-2.97
703559.19	9323507.64	-2.97
703558.76	9323509.56	-2.89
703560.41	9324151.69	-4.83
703560.19	9324154.08	-4.76
703560.53	9324149.15	-4.72
703560.71	9324146.72	-4.7
703560.82	9324144.46	-4.61
703559.96	9324156.25	-4.6
703560.98	9324142.29	-4.57
703559.99	9323953.02	-4.5
703560.86	9323947.06	-4.27
703561.12	9323945.25	-4.2
703560.34	9323951.21	-4.07
703560.68	9323949.17	-3.8
703560.13	9323683.09	-3.61
703560.47	9323680.84	-3.46
703560.89	9323678.8	-3.4
703560.54	9323499.98	-2.98
703560.25	9323501.88	-2.94
703560.88	9323498.1	-2.92
703559.93	9323503.96	-2.88
703561.69	9324135.97	-4.8
703562.22	9324129.33	-4.69
703561.25	9324140.17	-4.66
703561.83	9324133.82	-4.42
703561.62	9323937.42	-4.42
703561.98	9324131.6	-4.34
703561.39	9324138.09	-4.31
703561.87	9323931.75	-4.29
703561.66	9323939.25	-4.27
703561.96	9323929.98	-4.11
703561.99	9323928.17	-4.05
703561.85	9323933.56	-4.01
703562.05	9323924.46	-3.98
703561.25	9323943.38	-3.96
703562.34	9323922.56	-3.9
703561.98	9323926.2	-3.87
703561.7	9323935.53	-3.87
703561.51	9323941.28	-3.61
703561.26	9323676.82	-3.39
703562.36	9323670.71	-3.39
703561.51	9323674.92	-3.36
703561.93	9323672.89	-3.27
703561.43	9323494.24	-2.97
703561.18	9323496.16	-2.95
703562.01	9323490.26	-2.94
703562.27	9323488.43	-2.82
703561.76	9323492.2	-2.82
703562.57	9324127.12	-4.68
703562.99	9324124.56	-4.67
703563.43	9324121.99	-4.67
703562.43	9323920.69	-4.16
703563.49	9323906.82	-4.05
703562.81	9323914.69	-4.05
703562.66	9323918.59	-4.05
703563.24	9323910.75	-4.02
703563.33	9323908.72	-4.01
703563.62	9323904.93	-3.98
703562.78	9323916.55	-3.86
703563.05	9323912.71	-3.8
703562.86	9323668.34	-3.6
703563.33	9323665.92	-3.43
703563.6	9323476.8	-3
703562.77	9323484.64	-2.98
703562.56	9323486.6	-2.91
703563.47	9323478.6	-2.86
703562.95	9323482.77	-2.76
703563.2	9323480.66	-2.64
703563.81	9324119.57	-4.58
703564.11	9324117.69	-4.49
703564.37	9324115.92	-4.39
703564.72	9324113.98	-4.3
703564.26	9323898.98	-4.17
703564.34	9323897.24	-4.07
703563.84	9323902.85	-3.93
703564.59	9323895.41	-3.71
703564.83	9323893.36	-3.62
703564.04	9323900.82	-3.61
703564.83	9323658.18	-3.42
703563.73	9323663.78	-3.37
703564.12	9323661.88	-3.37
703564.45	9323660.09	-3.34
703564.22	9323469.04	-3.04
703564.1	9323471	-3
703564.64	9323462.82	-2.89
703563.89	9323473.02	-2.85
703564.53	9323464.97	-2.76
703564.33	9323467.15	-2.74
703564.88	9323460.86	-2.73
703563.71	9323475.11	-2.63
703566.01	9324105.98	-4.69
703565.64	9324108.89	-4.58
703565.21	9324111.72	-4.34
703565	9323891.51	-4.16
703565.75	9323883.94	-4.04
703565.35	9323887.94	-4.02
703565.42	9323878.18	-3.99
703565.21	9323880.2	-3.96
703564.98	9323882.16	-3.93
703565.12	9323889.82	-3.9
703565.64	9323876.26	-3.81
703565.93	9323874.19	-3.74
703565.56	9323885.87	-3.61
703565.94	9323649.35	-3.51
703565.46	9323653.93	-3.46
703565.19	9323656.15	-3.4
703565.68	9323651.7	-3.3
703565.78	9323452.96	-2.83
703565.01	9323458.83	-2.79
703565.49	9323454.95	-2.76
703565.26	9323456.83	-2.7
703566.12	9323450.85	-2.67
703566.3	9324103.39	-4.6
703566.67	9324101.44	-4.51
703566.99	9324099.8	-4.42
703567.37	9324098.1	-4.33
703566.59	9323870.18	-4.11
703566.28	9323872.14	-4.01
703566.85	9323868.32	-3.81
703567.26	9323866.27	-3.75
703566.86	9323615.35	-3.69
703566.94	9323634.67	-3.52
703566.18	9323647.11	-3.48
703566.84	9323636.98	-3.48
703566.95	9323632.28	-3.45
703566.88	9323617.62	-3.45
703566.9	9323619.66	-3.44
703566.6	9323597.72	-3.42
703567.04	9323621.71	-3.42
703566.85	9323612.91	-3.4
703567.07	9323623.74	-3.4
703567.05	9323625.82	-3.39
703567.02	9323627.87	-3.37
703566.93	9323610.55	-3.37
703566.96	9323630.05	-3.36
703566.48	9323600.11	-3.34
703566.64	9323639.19	-3.31
703566.39	9323645.01	-3.3
703566.54	9323643.09	-3.3
703566.51	9323604.48	-3.3
703566.68	9323593.16	-3.27
703566.9	9323591.14	-3.27
703566.77	9323608.28	-3.25
703566.39	9323602.36	-3.24
703566.65	9323641.2	-3.23
703567.16	9323589.11	-3.2
703566.54	9323606.27	-3.14
703566.59	9323595.38	-2.97
703567.39	9323586.97	-2.97
703566.79	9323446.72	-2.88
703566.41	9323448.76	-2.88
703567.13	9323444.84	-2.69
703568.45	9324088.44	-4.61
703567.79	9324096.1	-4.51
703568.04	9324093.75	-4.43
703568.11	9324091.1	-4.18
703568.09	9323862.21	-3.99
703567.63	9323864.17	-3.87
703568.58	9323860.38	-3.8
703568.01	9323582.83	-3.3
703567.66	9323584.88	-3.28
703568.47	9323580.62	-3.27
703568.53	9323438.97	-2.79
703568.07	9323440.81	-2.67
703567.56	9323442.82	-2.64
703568.91	9324086.04	-4.33
703569.6	9324081.88	-4.24
703569.19	9324083.85	-4.11
703569.72	9324079.97	-3.99
703569.47	9323856.36	-3.9
703569	9323858.39	-3.84
703568.96	9323578.57	-3.28
703569.61	9323576.24	-3.24
703568.97	9323437.06	-2.79
703569.7	9323433.05	-2.69
703569.34	9323435.12	-2.6
703571.08	9324068.52	-4.64
703570.93	9324071.13	-4.58
703570.65	9324073.68	-4.52
703570	9324078.09	-4.31
703570.36	9324076.01	-4.25
703570.9	9323850.42	-3.87
703570.45	9323852.41	-3.87
703569.98	9323854.42	-3.81
703570.21	9323574.2	-3.2
703570.9	9323572.24	-3.11
703570.03	9323431.07	-2.76
703570.33	9323429.08	-2.72
703571.05	9323423.13	-2.7
703570.84	9323425.06	-2.7
703570.57	9323427.05	-2.57
703571.81	9324348.74	-4.99
703572.19	9324346.58	-4.97
703571.43	9324066.04	-4.33
703572.32	9324059.8	-4.28
703571.93	9324061.83	-4.18
703571.63	9324063.68	-3.96
703572.39	9323842.54	-3.87
703572.08	9323844.47	-3.81
703571.7	9323846.53	-3.7
703571.3	9323848.56	-3.53
703572.04	9323568.53	-3.17
703571.51	9323570.4	-3.08
703571.89	9323393.03	-2.83
703571.83	9323400.99	-2.77
703572.29	9323387.26	-2.72
703571.95	9323406.99	-2.7
703571.62	9323417.22	-2.7
703571.72	9323415.22	-2.69
703571.89	9323399.01	-2.67
703571.96	9323408.94	-2.67
703571.87	9323394.93	-2.64
703571.85	9323413.17	-2.6
703571.97	9323411.05	-2.58
703571.24	9323421.25	-2.57
703571.99	9323405.07	-2.55
703571.89	9323391.19	-2.54
703571.43	9323419.29	-2.54
703571.91	9323403.03	-2.51
703572.02	9323389.26	-2.45
703571.85	9323397.03	-2.39
703573.03	9324339.93	-5.03
703573.49	9324333.06	-4.96
703573.37	9324335.51	-4.94
703573.21	9324337.78	-4.82
703572.44	9324344.39	-4.79
703573.52	9324330.86	-4.72
703572.76	9324342.12	-4.59
703572.92	9324055.56	-4.46
703573.34	9324050.56	-4.37
703573.52	9324048.24	-4.37
703572.63	9324057.8	-4.18
703573.44	9323836.47	-3.99
703573.21	9324053.04	-3.81
703572.84	9323840.59	-3.7
703573.13	9323838.53	-3.68
703573.43	9323563.76	-3.39
703572.69	9323566.28	-3.37
703573.12	9323383.75	-2.76
703572.68	9323385.35	-2.7
703574.2	9324314.67	-5.02
703574.1	9324319.32	-5
703573.67	9324328.62	-5
703573.99	9324321.63	-4.99
703574.55	9324310.15	-4.98
703574.82	9324305.44	-4.96
703574.61	9324307.71	-4.92
703573.81	9324326.42	-4.88
703574.74	9324300.83	-4.86
703573.92	9324324.03	-4.81
703574.24	9324317.01	-4.8
703574.84	9324303.16	-4.77
703574.44	9324312.47	-4.77
703573.83	9324046.07	-4.45
703574.48	9324041.66	-4.43
703574.41	9323987.79	-4.37
703574.77	9324039.33	-4.37
703574.01	9324043.87	-4.34
703574.43	9323990.18	-4.25
703574.27	9323985.27	-4.24
703574.67	9323992.44	-4.21
703574.35	9323982.89	-4.18
703574.63	9323978.7	-3.97
703573.75	9323834.44	-3.89
703574.39	9323980.64	-3.85
703574.8	9323826.36	-3.81
703574.61	9323828.3	-3.81
703573.97	9323832.56	-3.77
703574.32	9323830.42	-3.75
703574.24	9323561.24	-3.3
703573.69	9323382.07	-2.6
703574.41	9323380.29	-2.51
703575.07	9324293.68	-5.07
703575.07	9324296.03	-5.01
703575.8	9324284.54	-4.99
703575	9324298.38	-4.95
703575.32	9324291.34	-4.86
703576.07	9324282.25	-4.77
703575.52	9324286.75	-4.77
703576.11	9324255.63	-4.73
703575.42	9324289.08	-4.71
703576.13	9324257.68	-4.63
703576.06	9324025.95	-4.55
703575.83	9324028.46	-4.51
703575.14	9324037.02	-4.37
703575.61	9324030.73	-4.27
703575.36	9324034.81	-4.17
703574.97	9323994.61	-4.14
703575.53	9324032.8	-4.09
703575.38	9323996.8	-4.02
703575.63	9323998.93	-3.88
703575.07	9323824.38	-3.83
703575.88	9324000.95	-3.82
703576.11	9323807.95	-3.81
703575.78	9323816.13	-3.75
703575.99	9323812.02	-3.74
703575.02	9323976.75	-3.72
703575.26	9323822.33	-3.71
703575.58	9323818.12	-3.7
703576.13	9323810.02	-3.67
703575.84	9323813.93	-3.67
703575.7	9323972.47	-3.63
703575.45	9323820.27	-3.59
703575.31	9323974.7	-3.56
703575.01	9323558.92	-3.11
703575.66	9323557.06	-2.96
703575.25	9323378.64	-2.83
703576.09	9323377.21	-2.79
703576.37	9324279.88	-5.07
703576.6	9324277.5	-4.98
703577.02	9324248.61	-4.87
703576.29	9324253.5	-4.85
703576.98	9324275.21	-4.81
703577.26	9324273.04	-4.78
703577.31	9324265.79	-4.76
703576.57	9324251.05	-4.76
703576.54	9324261.7	-4.66
703576.85	9324263.71	-4.62
703576.25	9324259.72	-4.62
703576.42	9324023.29	-4.55
703576.71	9324010.43	-4.51
703576.3	9323970.1	-4.3
703576.63	9324020.8	-4.25
703576.17	9324003.01	-4.2
703576.81	9324012.89	-4.18
703576.67	9324007.77	-4.18
703576.85	9324018.65	-4.08
703576.43	9324005.24	-4.06
703577.01	9323967.73	-4.06
703576.83	9324016.79	-4
703576.76	9324014.94	-3.99
703576.68	9323797.74	-3.81
703576.29	9323805.94	-3.81
703576.62	9323799.75	-3.8
703577.05	9323793.81	-3.77
703576.37	9323801.8	-3.7
703577.23	9323791.73	-3.68
703576.84	9323795.77	-3.65
703576.36	9323803.97	-3.61
703576.88	9323553.92	-3
703576.31	9323555.46	-2.96
703577.08	9323375.82	-2.55
703578.39	9324263.94	-4.87
703577.82	9324268.01	-4.85
703578.38	9324270.22	-4.82
703578.11	9324266.24	-4.81
703577.78	9324268.54	-4.78
703577.49	9324270.73	-4.77
703577.6	9324246.34	-4.75
703578.28	9324244.5	-4.55
703577.77	9323787.78	-3.83
703577.71	9323965.4	-3.76
703578.43	9323963.42	-3.76
703577.47	9323789.78	-3.59
703578.07	9323785.92	-3.53
703578.42	9323783.97	-3.52
703578.33	9323549.54	-3.31
703577.62	9323551.9	-3.17
703578.11	9323374.17	-2.49
703579.73	9324363.59	-4.94
703579.84	9324254.67	-4.9
703578.97	9324272.34	-4.82
703579.45	9324256.92	-4.75
703578.7	9324261.64	-4.75
703579.54	9324274.28	-4.69
703579.04	9324259.29	-4.61
703579.62	9324241.22	-4.6
703578.95	9324242.9	-4.53
703579.33	9323961.72	-4.11
703579.15	9323780.18	-3.78
703578.77	9323782.01	-3.58
703579.69	9323778.34	-3.41
703579.03	9323547.04	-3.31
703579.77	9323544.55	-3.17
703579.11	9323372.61	-2.69
703580.47	9324239.35	-4.8
703580.51	9324250.36	-4.75
703580.2	9324252.49	-4.75
703580.78	9324248.04	-4.71
703580.94	9324361.97	-4.7
703580.36	9324276.21	-4.7
703581.01	9323957.96	-4.17
703580.15	9323959.99	-4.05
703580.22	9323776.39	-3.8
703580.44	9323542.4	-3.11
703581.05	9323540.39	-3
703580.13	9323371.18	-2.8
703581.03	9323369.93	-2.54
703581.47	9324243.58	-4.9
703581.51	9324237.35	-4.85
703582.27	9324280.41	-4.85
703582.22	9324360.55	-4.84
703581.17	9324245.72	-4.77
703582.06	9324239.24	-4.77
703581.26	9324278.25	-4.72
703581.73	9324241.42	-4.64
703581.73	9323955.62	-4.31
703582.2	9323953.02	-3.99
703581.29	9323774.27	-3.78
703581.78	9323772.43	-3.5
703582.33	9323770.57	-3.4
703581.64	9323538.53	-2.97
703582.17	9323536.67	-2.94
703581.96	9323368.48	-2.55
703583.63	9324226.18	-5.02
703582.68	9324234.97	-4.93
703582.43	9324236.94	-4.92
703582.46	9324235.29	-4.85
703583.48	9324358.94	-4.85
703583.51	9324228.3	-4.81
703583.38	9324233.3	-4.8
703583.25	9324282.43	-4.79
703583.17	9324230.66	-4.73
703582.84	9324232.84	-4.64
703582.76	9323950.65	-4.15
703583.31	9323948.66	-4.06
703583.44	9323766.97	-3.7
703582.91	9323768.66	-3.67
703583.5	9323530.79	-3.17
703583.06	9323532.91	-3.06
703582.61	9323534.8	-2.91
703582.83	9323366.96	-2.7
703583.64	9323365.52	-2.66
703582.88	9323325.67	-2.6
703584.82	9324215.26	-4.89
703584.15	9324221.85	-4.8
703584.39	9324219.62	-4.77
703584.29	9324231.34	-4.76
703584.18	9324284.26	-4.65
703584.03	9324224.1	-4.59
703584.72	9324217.46	-4.52
703584.67	9323925.26	-4.25
703584.73	9323929.72	-4.21
703584.75	9323940.61	-4.18
703584.69	9323927.58	-4.18
703584.1	9323914.22	-4.17
703584.24	9323911.83	-4.06
703584.31	9323906.9	-4
703584.47	9323920.56	-3.96
703584.07	9323916.34	-3.96
703584.69	9323900.61	-3.96
703584.25	9323918.37	-3.9
703584.25	9323904.7	-3.9
703584.8	9323931.72	-3.85
703584.21	9323944.95	-3.84
703584.31	9323902.66	-3.81
703583.8	9323946.85	-3.79
703584.62	9323922.86	-3.73
703584.56	9323942.86	-3.63
703584.28	9323909.34	-3.6
703583.98	9323765.13	-3.53
703584.47	9323763.24	-3.4
703583.91	9323528.39	-3.15
703584.3	9323525.99	-3.09
703584.87	9323519.42	-3.06
703584.62	9323521.48	-2.97
703584.56	9323523.66	-2.9
703584.26	9323364	-2.72
703583.69	9323327.5	-2.59
703584.34	9323329.27	-2.39
703584.99	9324357.07	-5.37
703585.72	9324198.2	-4.83
703585.14	9324285.98	-4.82
703586.07	9324187.44	-4.81
703586.15	9324180.99	-4.8
703586.14	9324183.14	-4.8
703586.07	9324287.82	-4.79
703585.47	9324204.64	-4.74
703585.63	9324202.55	-4.7
703585.5	9324206.7	-4.7
703585.06	9324213.17	-4.7
703585.88	9324196.04	-4.68
703585.99	9324189.41	-4.68
703584.98	9324229.38	-4.66
703585.96	9324191.68	-4.61
703585.62	9324227.54	-4.6
703585.87	9324193.84	-4.58
703585.11	9324211.03	-4.58
703586.1	9324185.27	-4.49
703585.73	9324200.37	-4.49
703585.31	9324208.79	-4.35
703584.99	9323938.31	-4.18
703585.01	9323936.01	-4.11
703584.97	9323933.85	-4.05
703585.45	9323896.02	-4.02
703585.92	9323893.63	-4
703585.01	9323898.4	-3.93
703585.51	9323759.55	-3.71
703584.99	9323761.38	-3.68
703585.84	9323757.5	-3.64
703585.24	9323507.04	-3.12
703585.44	9323502.2	-3.12
703585.52	9323487.54	-3.11
703585.32	9323504.66	-3.08
703585.55	9323484.97	-3.06
703585.16	9323509.28	-3.03
703585.37	9323489.99	-3.02
703585.3	9323494.14	-3
703585	9323517.36	-2.99
703585.16	9323513.38	-2.94
703585.52	9323482.62	-2.94
703586.08	9323472.58	-2.93
703585.37	9323499.92	-2.91
703585.27	9323492.16	-2.91
703585.6	9323480.31	-2.9
703585.75	9323478.24	-2.88
703585.1	9323515.39	-2.84
703585.27	9323497.82	-2.82
703585.21	9323495.93	-2.82
703585.9	9323476.36	-2.82
703585.09	9323331.14	-2.81
703585.49	9323360.69	-2.79
703585.96	9323474.54	-2.75
703586.14	9323335.07	-2.68
703585.68	9323333.09	-2.63
703586	9323358.99	-2.63
703584.97	9323362.33	-2.62
703585.15	9323511.45	-2.6
703586.35	9324354.89	-5.06
703587.04	9324163.42	-4.87
703587.24	9324161.25	-4.84
703587.4	9324158.89	-4.8
703587.21	9324289.72	-4.76
703586.82	9324165.51	-4.69
703586.29	9324176.74	-4.67
703586.4	9324174.5	-4.64
703586.33	9324225.86	-4.64
703586.48	9324172.37	-4.59
703586.6	9324170.18	-4.53
703586.93	9324224.16	-4.51
703586.74	9324167.86	-4.49
703586.19	9324178.89	-4.43
703586.84	9323889.11	-3.88
703587.32	9323886.95	-3.84
703586.95	9323751.49	-3.75
703586.58	9323753.41	-3.62
703586.38	9323891.29	-3.6
703586.27	9323755.51	-3.4
703586.34	9323470.41	-3.09
703586.51	9323467.82	-3
703586.78	9323355.37	-2.99
703586.74	9323465.24	-2.88
703586.8	9323338.8	-2.84
703586.9	9323462.87	-2.79
703587.29	9323351.83	-2.79
703587.22	9323458.81	-2.78
703587	9323460.71	-2.75
703586.52	9323336.97	-2.69
703587.1	9323353.67	-2.69
703587.01	9323340.74	-2.63
703586.37	9323357.27	-2.62
703587.25	9323342.62	-2.6
703587.86	9324352.84	-5.27
703588.35	9324291.67	-5.08
703588.28	9324220	-4.89
703588.56	9324147.5	-4.84
703587.89	9324154.43	-4.83
703587.61	9324222.27	-4.79
703587.67	9324156.59	-4.77
703588.15	9324152.34	-4.74
703588.39	9324149.95	-4.66
703588.6	9323882.87	-3.91
703587.88	9323884.85	-3.85
703588.31	9323732.91	-3.62
703588.24	9323726.67	-3.61
703588.28	9323735.06	-3.61
703588.31	9323739.19	-3.59
703588.51	9323714.48	-3.59
703588.46	9323716.45	-3.59
703588.25	9323728.79	-3.58
703587.75	9323745.26	-3.58
703588.13	9323741.31	-3.56
703588.02	9323743.3	-3.56
703588.39	9323718.49	-3.55
703588.41	9323737.1	-3.55
703588.26	9323724.71	-3.53
703588.33	9323722.66	-3.53
703587.56	9323747.15	-3.53
703588.32	9323720.61	-3.52
703587.47	9323748.71	-3.49
703588.27	9323730.89	-3.46
703588.25	9323450.57	-2.93
703587.44	9323344.43	-2.91
703588.59	9323448.18	-2.88
703587.93	9323452.87	-2.84
703587.42	9323349.99	-2.81
703587.44	9323456.94	-2.75
703587.48	9323346.26	-2.75
703587.65	9323455.01	-2.71
703587.5	9323348.16	-2.6
703589.33	9324351.2	-5.19
703589.53	9324293.66	-4.9
703588.79	9324217.58	-4.77
703589.22	9324215.01	-4.73
703589.56	9324212.8	-4.63
703589.9	9324134.33	-4.56
703589.81	9324136.51	-4.52
703589.54	9324138.65	-4.48
703588.72	9324145.3	-4.46
703589.17	9324140.9	-4.44
703588.99	9324143.17	-4.34
703589.3	9323880.93	-3.88
703589.45	9323706.51	-3.61
703588.66	9323712.55	-3.59
703589.81	9323704.62	-3.56
703589.07	9323708.53	-3.4
703588.86	9323710.51	-3.37
703588.91	9323445.87	-2.75
703589.59	9323441.63	-2.69
703589.24	9323443.61	-2.65
703590.77	9324349.81	-5.17
703590.5	9324295.6	-4.9
703590.11	9324210.95	-4.67
703591.02	9324207.31	-4.61
703591.12	9324118.9	-4.6
703591.03	9324121.2	-4.57
703590.85	9324123.41	-4.55
703590.69	9324125.37	-4.53
703590.55	9324127.53	-4.52
703590.27	9324129.74	-4.51
703590.11	9324132.07	-4.5
703590.49	9324209.21	-4.34
703590.51	9323876.9	-3.87
703591.01	9323874.6	-3.87
703589.99	9323878.96	-3.82
703590.9	9323698.26	-3.55
703590.48	9323700.35	-3.44
703590.15	9323702.58	-3.37
703589.91	9323439.75	-2.78
703590.29	9323437.79	-2.78
703590.8	9323435.65	-2.78
703592.18	9324348.54	-5.15
703591.53	9324202.78	-5
703592.23	9324299.17	-4.76
703591.32	9324297.48	-4.75
703591.95	9324200.48	-4.7
703591.27	9324205.13	-4.67
703592.14	9324198.18	-4.66
703591.43	9324096.93	-4.62
703591.29	9324116.67	-4.62
703591.44	9324114.64	-4.58
703592.33	9324196.04	-4.57
703591.65	9324105.89	-4.49
703591.61	9324107.99	-4.43
703591.45	9324094.84	-4.4
703591.55	9324103.84	-4.38
703591.43	9324085.74	-4.35
703591.45	9324112.6	-4.35
703591.6	9324083.47	-4.29
703591.33	9324087.94	-4.25
703591.99	9324079.03	-4.23
703592.31	9324076.82	-4.19
703591.53	9324099.13	-4.18
703591.39	9324092.56	-4.15
703591.58	9324101.58	-4.12
703591.38	9324090.23	-4.12
703591.47	9324110.23	-4.1
703591.83	9324081.21	-3.97
703592.06	9323867.37	-3.81
703591.45	9323872.21	-3.76
703591.79	9323869.7	-3.66
703591.21	9323696.41	-3.58
703591.68	9323694.49	-3.28
703592.17	9323692.41	-3.07
703591.28	9323433.39	-2.76
703591.79	9323431.32	-2.71
703592.24	9323429.18	-2.65
703593.65	9324347.17	-5.13
703593.19	9324300.97	-4.78
703592.64	9324193.9	-4.77
703593.42	9324184.99	-4.62
703593.2	9324187.12	-4.6
703592.92	9324189.29	-4.57
703592.75	9324191.57	-4.54
703593.62	9324068.17	-4.41
703592.6	9324074.69	-4.37
703592.9	9324072.52	-4.13
703593.55	9323844.85	-4.11
703593.33	9324070.37	-4.06
703593.41	9323847.31	-3.97
703593.25	9323852.58	-3.9
703593.26	9323850.4	-3.87
703593.62	9323838.69	-3.81
703593.25	9323858.98	-3.79
703593.32	9323856.91	-3.76
703593.23	9323854.74	-3.75
703592.42	9323865.21	-3.73
703593.47	9323840.62	-3.68
703593.44	9323842.64	-3.66
703593.05	9323861.03	-3.65
703592.8	9323863.1	-3.65
703592.95	9323688.4	-3.61
703592.57	9323690.38	-3.5
703593.65	9323684.31	-3.38
703593.29	9323686.38	-3.32
703593.29	9323423.14	-2.71
703592.8	9323425.06	-2.68
703592.49	9323426.91	-2.59
703594.12	9324302.89	-4.76
703594.58	9324176.49	-4.74
703594.22	9324178.76	-4.71
703593.96	9324180.82	-4.69
703593.77	9324182.94	-4.65
703594.82	9324061.74	-4.34
703594.48	9324063.98	-4.29
703594.24	9323831.64	-3.96
703594.03	9323834.25	-3.91
703594.43	9323829	-3.9
703594.07	9324066.05	-3.88
703594.67	9323826.5	-3.78
703593.69	9323836.6	-3.75
703594.9	9323824.33	-3.66
703593.94	9323682.24	-3.53
703594.22	9323680.4	-3.46
703594.73	9323676.35	-3.34
703594.47	9323678.44	-3.29
703593.77	9323421.03	-2.71
703594.28	9323418.71	-2.69
703594.68	9323416.28	-2.69
703595.04	9324345.43	-5.11
703596.06	9324306.87	-4.96
703595.12	9324304.91	-4.9
703595.09	9324174.06	-4.77
703595.61	9324171.54	-4.48
703596.08	9324169.19	-4.48
703595.75	9324055.34	-4.43
703595.15	9324059.54	-4.34
703595.56	9324057.4	-4.22
703595.94	9324053.26	-4.12
703595.92	9323818.52	-3.88
703595.16	9323822.4	-3.75
703595.49	9323820.54	-3.63
703595.21	9323672.4	-3.56
703595.76	9323666.4	-3.43
703594.97	9323674.29	-3.41
703595.87	9323664.52	-3.38
703595.61	9323668.51	-3.35
703596.02	9323662.64	-3.34
703595.42	9323670.52	-3.28
703595.02	9323413.97	-2.69
703595.39	9323411.8	-2.6
703595.74	9323409.84	-2.57
703595.97	9323407.99	-2.51
703596.27	9324343.32	-5.09
703596.78	9324308.67	-4.73
703596.31	9324048.92	-4.58
703597.06	9324165.23	-4.4
703596.58	9324167.17	-4.36
703596.94	9324040.55	-4.32
703597.09	9324036.7	-4.31
703597.01	9324038.56	-4.22
703596.71	9324042.65	-4.22
703596.51	9324046.94	-4.16
703596.2	9324051.08	-4.13
703597.21	9324034.84	-4.03
703596.66	9324044.84	-3.94
703597.33	9323810.99	-3.88
703596.29	9323816.17	-3.87
703596.73	9323813.56	-3.85
703596.39	9323627.51	-3.44
703596.28	9323658.61	-3.41
703596.82	9323646.11	-3.4
703596.52	9323629.52	-3.38
703596.33	9323619.28	-3.38
703596.72	9323652.45	-3.35
703596.76	9323637.84	-3.35
703597.3	9323603.25	-3.34
703596.71	9323635.84	-3.34
703596.43	9323613.23	-3.34
703596.55	9323609.2	-3.32
703596.79	9323650.37	-3.32
703596.61	9323654.45	-3.32
703596.51	9323611.19	-3.31
703596.8	9323644.06	-3.29
703596.19	9323660.6	-3.29
703596.77	9323648.21	-3.28
703596.94	9323605.16	-3.26
703596.43	9323656.56	-3.26
703596.58	9323631.67	-3.22
703596.75	9323639.87	-3.22
703596.38	9323625.55	-3.19
703596.29	9323615.3	-3.19
703596.64	9323633.82	-3.19
703596.31	9323617.34	-3.19
703596.87	9323642	-3.19
703596.72	9323607.18	-3.15
703596.38	9323623.43	-3.1
703596.27	9323621.26	-2.94
703596.97	9323401.84	-2.78
703596.57	9323404.12	-2.76
703597.35	9323399.39	-2.71
703596.22	9323406.16	-2.59
703597.57	9324341.19	-5.14
703598.54	9324312.11	-4.93
703597.56	9324310.31	-4.7
703598.03	9324161.17	-4.51
703597.7	9324031.04	-4.5
703597.46	9324163.26	-4.46
703597.44	9324032.85	-4.32
703598.37	9324025.63	-4.04
703597.94	9324029.39	-4.04
703598.15	9324027.62	-3.88
703597.85	9323808.6	-3.72
703598.32	9323806.47	-3.59
703598.47	9323597.92	-3.38
703597.63	9323601.55	-3.26
703598.02	9323599.74	-3
703597.66	9323397.05	-2.76
703598.37	9323391.03	-2.75
703598.09	9323392.93	-2.57
703597.88	9323394.88	-2.54
703598.7	9324339.08	-5.02
703599.36	9324314.13	-4.96
703599.75	9324337.26	-4.93
703598.71	9324158.94	-4.71
703598.73	9324023.88	-4.56
703599.39	9324156.58	-4.55
703599.89	9324008.31	-4.29
703599.29	9324018.08	-4.09
703598.87	9324022.15	-4.06
703599.9	9324006.35	-4.03
703599.7	9324010.26	-3.98
703599.9	9324004.48	-3.97
703599.12	9324020.22	-3.92
703599.58	9324014.27	-3.85
703599.36	9324016.23	-3.83
703598.8	9323804.61	-3.72
703599.71	9324012.34	-3.7
703599.38	9323802.45	-3.44
703599.05	9323596.1	-3.34
703599.59	9323594.34	-3
703599.32	9323384.8	-2.71
703598.95	9323386.95	-2.69
703599.52	9323382.5	-2.69
703599.75	9323380.16	-2.62
703598.66	9323389.05	-2.6
703600.17	9324316.08	-4.99
703600.71	9324335.71	-4.81
703600.71	9324317.94	-4.79
703600.12	9324154.33	-4.46
703600.77	9324152.19	-4.45
703600.33	9323998.25	-4.35
703600.44	9323996.45	-4.04
703600.05	9324002.32	-4.03
703600.9	9323992.31	-4
703600.59	9323994.59	-4
703600.2	9324000.11	-3.8
703600.05	9323800.21	-3.78
703600.72	9323797.96	-3.66
703600.94	9323590.72	-3.46
703600.25	9323592.37	-3.31
703600.3	9323375.87	-2.75
703600.62	9323373.79	-2.65
703599.97	9323378	-2.63
703601.05	9323369.74	-2.6
703600.84	9323371.69	-2.54
703602.36	9324331.03	-4.91
703601.99	9324332.78	-4.88
703601.35	9324334.3	-4.84
703601.34	9324319.54	-4.82
703601.78	9324321.08	-4.79
703602.32	9324322.68	-4.76
703601.19	9324150.21	-4.6
703601.85	9324092.03	-4.55
703601.52	9324147.74	-4.54
703601.79	9324089.37	-4.51
703602.16	9324145.54	-4.48
