706918.7204	9329166.72	-10.6
706926.7009	9329072.498	-10.6
706928.9163	9329006.603	-10.6
706911.5139	9328918.813	-10.6
706878.6515	9328881.346	-10.6
706802.7614	9328833.778	-10.6
706750.4093	9328811.508	-10.6
706661.4751	9328806.446	-10.6
706573.0681	9328812.608	-10.6
706504.7538	9328836.758	-10.6
706447.1875	9328860.87	-10.6
706411.6243	9328890.276	-10.6
706379.0276	9328929.921	-10.6
706351.8738	9328989.557	-10.6
706340.5117	9329024.126	-10.6
706333.5239	9329052.091	-10.6
702491.6784	9327928.529	-10.6
702474.4477	9328034.005	-10.6
702472.8566	9328141.38	-10.6
702444.6966	9328193.208	-10.6
702452.8693	9328298.598	-10.6
702475.4837	9328340.493	-10.6
702556.6925	9328373.406	-10.6
702633.9569	9328395.594	-10.6
702742.4578	9328408.893	-10.6
702825.4758	9328398.851	-10.6
702882.994	9328360.588	-10.6
702913.0584	9328294.112	-10.6
702929.5065	9328246.228	-10.6
702926.2281	9328143.75	-10.6
702905.2897	9328019.857	-10.6
702847.3983	9327947.822	-10.6
702794.4451	9327891.389	-10.6
702715.2172	9327866.279	-10.6
702626.2981	9327864.627	-10.6
702545.2483	9327878.567	-10.6
702510.1534	9327902.112	-10.6
702490.4281	9327919.992	-10.6
702489.7333	9327931.219	-10.6
705588.3305	9328723.75	-10.6
705602.3043	9328809.6	-10.6
705603.8872	9328986.269	-10.6
705564.1308	9329075.231	-10.6
705524.4512	9329186.643	-10.6
705479.7421	9329256.099	-10.6
705409.5682	9329308.073	-10.6
705263.9941	9329312.476	-10.6
705143.7511	9329295.317	-10.6
705028.3437	9329263.5	-10.6
704908.0077	9329219.011	-10.6
704827.6994	9329164.623	-10.6
704758.0193	9329075.06	-10.6
704736.3267	9329017.544	-10.6
704737.0972	9328957.023	-10.6
704741.6293	9328853.541	-10.6
704784.4645	9328807.518	-10.6
704829.2204	9328751.728	-10.6
704905.2796	9328706.567	-10.6
704974.4958	9328660.454	-10.6
705061.2694	9328605.495	-10.6
705158.9044	9328583.687	-10.6
705235.1137	9328582.45	-10.6
705367.0236	9328582.974	-10.6
705456.9255	9328585.594	-10.6
705510.7489	9328609.812	-10.6
705553.8479	9328640.9	-10.6
705576.4498	9328678.402	-10.6
705591.5136	9328725.936	-10.6
683421.1395	9339844.693	-10.6
683412.049	9340071.151	-10.6
683453.2955	9340139.347	-10.6
683537.5201	9340201.557	-10.6
683623.6581	9340250.098	-10.6
683729.1868	9340247.828	-10.6
683797.5889	9340247.622	-10.6
683887.4241	9340225.879	-10.6
683945.9132	9340178.855	-10.6
683992.6467	9340122.106	-10.6
684013.9088	9340043.962	-10.6
684003.7601	9339919.065	-10.6
683962.401	9339813.782	-10.6
683911.341	9339731.952	-10.6
683834.9808	9339685.335	-10.6
683727.434	9339666.139	-10.6
683614.1301	9339682.097	-10.6
683487.2283	9339725.423	-10.6
683442.4021	9339766.549	-10.6
683420.0698	9339813.952	-10.6
683416.7525	9339848.122	-10.6
709339.551	9350227.622	-10.6
709277.2776	9350311.779	-10.6
709226.7005	9350386.134	-10.6
709223.0741	9350470.092	-10.6
709243.1373	9350622.299	-10.6
709290.2795	9350688.515	-10.6
709358.9588	9350764.421	-10.6
709411.8538	9350797.43	-10.6
709501.8859	9350828.361	-10.6
709621.1563	9350833.815	-10.6
709701.2753	9350823.783	-10.6
709779.2677	9350763	-10.6
709831.8459	9350702.303	-10.6
709892.138	9350610.343	-10.6
709901.6217	9350524.413	-10.6
709889.6012	9350438.555	-10.6
709857.9721	9350335.193	-10.6
709826.5017	9350278.685	-10.6
709755.9134	9350216.453	-10.6
709659.918	9350156.258	-10.6
709583.6766	9350156.516	-10.6
709493.751	9350156.82	-10.6
709431.2666	9350178.506	-10.6
709364.8906	9350205.574	-10.6
709337.8363	9350226.408	-10.6
670997.4042	9367769.186	-10.6
670997.944	9367970.226	-10.6
671023.5386	9368036.521	-10.6
671063.8148	9368109.608	-10.6
671116.768	9368170.95	-10.6
671183.3782	9368221.519	-10.6
671238.2106	9368254.554	-10.6
671312.5942	9368287.535	-10.6
671398.6876	9368312.678	-10.6
671489.6427	9368328.048	-10.6
671630.422	9368331.573	-10.6
671722.2312	9368301.072	-10.6
671793.5063	9368268.674	-10.6
671869.6008	9368210.888	-10.6
671932.004	9368151.188	-10.6
671985.5405	9368066.137	-10.6
672026.3713	9367982.096	-10.6
672068.2085	9367908.788	-10.6
672090.4708	9367826.749	-10.6
672101.9719	9367741.811	-10.6
672090.897	9367622.777	-10.6
672049.6314	9367545.789	-10.6
672001.5494	9367478.58	-10.6
671926.1279	9367423.155	-10.6
671818.4974	9367386.36	-10.6
671726.579	9367375.873	-10.6
671546.7237	9367381.238	-10.6
671398.1657	9367392.374	-10.6
671294.6299	9367423.882	-10.6
671222.3861	9367459.21	-10.6
671162.8792	9367505.239	-10.6
671127.7924	9367544.371	-10.6
671073.2098	9367604.05	-10.6
671040.1096	9367654.887	-10.6
671014.827	9367704.727	-10.6
670997.3727	9367757.475	-10.6
670996.6723	9367769.676	-10.6
672040.9654	9365518.425	-10.6
672030.5064	9365626.782	-10.6
672033.6374	9365699.969	-10.6
672050.4828	9365783.854	-10.6
672073.0637	9365819.903	-10.6
672114.2282	9365859.805	-10.6
672176.8931	9365897.696	-10.6
672218.9558	9365908.317	-10.6
672325.5035	9365907.052	-10.6
672393.8562	9365879.54	-10.6
672468.066	9365849.085	-10.6
672521.7239	9365809.901	-10.6
672585.1277	9365759.956	-10.6
672632.8406	9365691.51	-10.6
672643.4447	9365636.829	-10.6
672630.551	9365568.548	-10.6
672603.9376	9365487.618	-10.6
672573.4512	9365420.361	-10.6
672507.8008	9365362.959	-10.6
672406.989	9365316.388	-10.6
672315.0732	9365305.902	-10.6
672233.9949	9365326.617	-10.6
672150.0185	9365360.027	-10.6
672105.1639	9365401.138	-10.6
672060.3622	9365461.768	-10.6
672040.2183	9365513.303	-10.6
672039.2607	9365520.625	-10.6
674297.5039	9365306.829	-10.6
674291.8533	9365384.92	-10.6
674318.3994	9365440.476	-10.6
674372.303	9365491.077	-10.6
674437.8779	9365520.175	-10.6
674563.9846	9365521.78	-10.6
674641.2176	9365524.496	-10.6
674712.4832	9365490.141	-10.6
674739.7761	9365461.764	-10.6
674744.4514	9365384.651	-10.6
674720.7702	9365304.688	-10.6
674664.863	9365236.526	-10.6
674585.5598	9365191.851	-10.6
674480.9029	9365169.692	-10.6
674422.2756	9365178.637	-10.6
674354.9499	9365223.715	-10.6
674320.8653	9365270.655	-10.6
674294.5673	9365305.373	-10.6
675179.1511	9364037.127	-10.6
675143.0778	9364071.385	-10.6
675058.1181	9364101.875	-10.6
674989.6735	9364095.232	-10.6
674914.2758	9364048.595	-10.6
674865.2764	9364003.837	-10.6
674843.6148	9363947.291	-10.6
674848.3459	9363890.673	-10.6
674867.7504	9363837.918	-10.6
674894.0163	9363791.976	-10.6
674938.8601	9363747.934	-10.6
675017.9299	9363708.678	-10.6
675084.3462	9363688.975	-10.6
675182.1398	9363704.319	-10.6
675222.3121	9363738.366	-10.6
675262.5359	9363790.956	-10.6
675282.1725	9363822.132	-10.6
663243.8264	9390004.99	-10.6
663179.5341	9390104.69	-10.6
663166.1625	9390233.541	-10.6
663168.3304	9390319.414	-10.6
663205.694	9390402.273	-10.6
663244.009	9390474.394	-10.6
663297.9241	9390527.935	-10.6
663403.748	9390614.528	-10.6
663480.101	9390646.544	-10.6
663526.0727	9390651.31	-10.6
663681.5363	9390644.093	-10.6
663734.2298	9390599.072	-10.6
663825.0284	9390541.269	-10.6
663861.0811	9390489.457	-10.6
663916.6328	9390414.175	-10.6
663943.8458	9390346.77	-10.6
663953.4282	9390267.699	-10.6
663955.1125	9390158.394	-10.6
663905.9603	9390054.095	-10.6
663870.6097	9389994.654	-10.6
663798.0885	9389930.424	-10.6
663730.5003	9389883.749	-10.6
663650.2775	9389868.334	-10.6
663557.3839	9389869.54	-10.6
663465.5044	9389885.382	-10.6
663383.4083	9389903.151	-10.6
663304.7865	9389941.894	-10.6
663260.8712	9389977.623	-10.6
663241.6268	9390005.239	-10.6
659926.1484	9394738.08	-10.6
659967.3779	9394803.365	-10.6
660037.9707	9394879.314	-10.6
660133.0326	9394963.987	-10.6
660216.3503	9395044.784	-10.6
660315.3079	9395122.616	-10.6
660398.6308	9395205.365	-10.6
660475.1602	9395309.6	-10.6
660535.989	9395391.428	-10.6
660616.3316	9395454.666	-10.6
660665.2702	9395472.114	-10.6
660754.2684	9395474.827	-10.6
660819.7658	9395464.91	-10.6
660880.3099	9395428.656	-10.6
660969.1831	9395379.647	-10.6
661014.9993	9395319.032	-10.6
661050.0133	9395239.901	-10.6
661054.6975	9395154.987	-10.6
661027.1387	9395081.863	-10.6
660985.8867	9395007.795	-10.6
660898.5641	9394888.949	-10.6
660761.262	9394726.308	-10.6
660656.3164	9394598.721	-10.6
660529.8785	9394479.969	-10.6
660418.1779	9394389.481	-10.6
660296.6421	9394275.597	-10.6
660216.3997	9394253.345	-10.6
660120.5816	9394260.407	-10.6
660056.0939	9394283.007	-10.6
659981.9118	9394340.763	-10.6
659917.532	9394408.253	-10.6
659881.5325	9394484.459	-10.6
659880.8197	9394594.735	-10.6
659889.3419	9394682.055	-10.6
659908.5114	9394723.728	-10.6
659926.4029	9394742.227	-10.6
665674.5768	9400527.698	-10.6
665715.9472	9400646.656	-10.6
665716.3708	9400818.413	-10.6
665681.3689	9400902.427	-10.6
665599.3833	9400970.942	-10.6
665421.4934	9401016.272	-10.6
665190.6654	9401010.984	-10.6
665028.3184	9401013.334	-10.6
664947.9481	9400943.267	-10.6
664894.9243	9400857.518	-10.6
664877.1476	9400787.297	-10.6
664877.3025	9400651.159	-10.6
664897.1674	9400575.966	-10.6
664932.2622	9400529.525	-10.6
664996.6014	9400443.976	-10.6
665072.2452	9400381.82	-10.6
665185.0762	9400328.844	-10.6
665240.3231	9400324.317	-10.6
665337.1404	9400321.639	-10.6
665405.6363	9400335.621	-10.6
665461.9238	9400356.464	-10.6
665529.4946	9400391.918	-10.6
665598.076	9400440.544	-10.6
665634.3734	9400485.345	-10.6
665673.9757	9400531.847	-10.6
663014.7916	9401156.701	-10.6
662887.1675	9401159.938	-10.6
662858.8582	9401181.964	-10.6
662816.4173	9401224.518	-10.6
662799.8914	9401266.034	-10.6
662796.0762	9401306.054	-10.6
662795.3108	9401393.886	-10.6
662795.6532	9401535.389	-10.6
662812.0821	9401655.872	-10.6
662843.6303	9401759.728	-10.6
662903.4623	9401830.823	-10.6
662970.0578	9401867.745	-10.6
663061.592	9401904.12	-10.6
663134.4645	9401907.847	-10.6
663269.4135	9401899.712	-10.6
663321.1886	9401874.702	-10.6
663374.8653	9401827.241	-10.6
663422.6418	9401766.619	-10.6
663450.8197	9401690.431	-10.6
663447.6309	9401585.531	-10.6
663437.6823	9401516.267	-10.6
663401.3485	9401455.85	-10.6
663343.9221	9401368.647	-10.6
663297.7762	9401295.079	-10.6
663246.3437	9401259.584	-10.6
663194.4318	9401227.994	-10.6
663145.9654	9401205.666	-10.6
663070.0755	9401167.302	-10.6
663032.8943	9401160.561	-10.6
663014.0524	9401154.385	-10.6
659408.0786	9399544.541	-10.6
659565.5286	9399542.215	-10.6
659608.4947	9399514.788	-10.6
659681.7525	9399476.554	-10.6
659729.5735	9399434.478	-10.6
659805.7628	9399395.261	-10.6
659836.001	9399362.009	-10.6
659881.8217	9399301.395	-10.6
659913.946	9399238.862	-10.6
659912.7957	9399166.65	-10.6
659919.4575	9399089.54	-10.6
659902.7015	9399034.931	-10.6
659883.0233	9398985.208	-10.6
659838.9028	9398938.471	-10.6
659776.2195	9398899.585	-10.6
659720.4007	9398868.49	-10.6
659669.5299	9398861.781	-10.6
659561.9765	9398871.796	-10.6
659491.6231	9398897.336	-10.6
659437.8974	9398923.813	-10.6
659369.5463	9398968.866	-10.6
659304.1407	9399018.791	-10.6
659261.2329	9399070.614	-10.6
659210.5592	9399146.853	-10.6
659193.0948	9399205.447	-10.6
659190.3162	9399270.837	-10.6
659208.119	9399354.72	-10.6
659240.573	9399430.761	-10.6
659277.8289	9399469.708	-10.6
659346.3824	9399509.556	-10.6
659407.1064	9399546.983	-10.6
662649.6969	9348918.95	-10.6
662653.1344	9349111.194	-10.6
662669.855	9349152.138	-10.6
662715.9464	9349213.499	-10.6
662767.8936	9349271.917	-10.6
662848.1959	9349336.115	-10.6
662943.1312	9349390.516	-10.6
663037.9997	9349419.543	-10.6
663092.7633	9349434.037	-10.6
663158.2121	9349424.106	-10.6
663207.0145	9349401.531	-10.6
663266.5046	9349355.506	-10.6
663293.7125	9349296.88	-10.6
663322.8645	9349234.345	-10.6
663334.349	9349142.58	-10.6
663328.251	9349053.788	-10.6
663292.7873	9348946.532	-10.6
663279.872	9348866.542	-10.6
663280.251	9348640.13	-10.6
663269.7411	9348361.049	-10.6
663241.1593	9348269.389	-10.6
663192.082	9348187.542	-10.6
663125.4458	9348117.453	-10.6
663015.8333	9348055.285	-10.6
662936.6149	9348031.096	-10.6
662779.2971	9348036.391	-10.6
662693.4108	9348077.605	-10.6
662628.9947	9348108.028	-10.6
662563.6604	9348160.899	-10.6
662507.1312	9348217.65	-10.6
662469.1587	9348270.449	-10.6
662415.6559	9348363.3	-10.6
662381.71	9348460.98	-10.6
662372.2226	9348569.33	-10.6
662391.0026	9348650.281	-10.6
662435.0928	9348694.081	-10.6
662504.6344	9348754.404	-10.6
662549.6815	9348790.394	-10.6
662604.5354	9348839.533	-10.6
662626.6141	9348874.119	-10.6
662647.2571	9348920.177	-10.6
666592.7542	9348612.257	-10.6
666598.1482	9348800.595	-10.6
666623.7142	9348859.082	-10.6
666665.9222	9348928.258	-10.6
666725.6469	9348970.062	-10.6
666801.9453	9348997.182	-10.6
666889.9049	9348999.872	-10.6
666958.2537	9348978.217	-10.6
667019.7038	9348935.111	-10.6
667092.8095	9348865.623	-10.6
667113.065	9348767	-10.6
667113.7652	9348664.526	-10.6
667105.6516	9348555.244	-10.6
667054.6824	9348498.779	-10.6
666987.1346	9348455.045	-10.6
666906.8961	9348416.225	-10.6
666809.1493	9348407.706	-10.6
666731.034	9348431.339	-10.6
666664.7035	9348476.41	-10.6
666623.7993	9348528.244	-10.6
666597.543	9348576.135	-10.6
666591.5336	9348612.626	-10.6
662090.9027	9349826.787	-10.6
662076.6658	9349987.849	-10.6
662093.496	9350070.756	-10.6
662139.6485	9350155.539	-10.6
662205.3101	9350226.608	-10.6
662294.4436	9350304.446	-10.6
662358.0232	9350326.726	-10.6
662444.0693	9350345.042	-10.6
662546.6825	9350345.749	-10.6
662706.8839	9350319.955	-10.6
662755.6513	9350283.718	-10.6
662848.3099	9350215.161	-10.6
662903.8434	9350150.606	-10.6
662945.5926	9350047.05	-10.6
662956.1548	9349975.781	-10.6
662954.8744	9349860.627	-10.6
662924.3463	9349771.9	-10.6
662876.2845	9349704.689	-10.6
662786.1016	9349599.529	-10.6
662690.1839	9349543.179	-10.6
662570.8693	9349508.36	-10.6
662461.3887	9349496.937	-10.6
662375.4564	9349521.56	-10.6
662303.2105	9349548.099	-10.6
662252.4892	9349584.34	-10.6
662179.3605	9349646.99	-10.6
662140.3991	9349695.887	-10.6
662099.5522	9349771.138	-10.6
662088.4596	9349826.794	-10.6
694765.4424	9338085.437	-10.6
695005.8434	9338088.571	-10.6
695127.0024	9338084.278	-10.6
695265.7948	9338093.593	-10.6
695303.0346	9338126.659	-10.6
695340.3686	9338189.006	-10.6
695291.7785	9338273.103	-10.6
695245.0612	9338331.816	-10.6
695153.349	9338377.008	-10.6
695038.1151	9338400.803	-10.6
694938.4788	9338412.835	-10.6
694868.0396	9338387.683	-10.6
694781.934	9338352.822	-10.6
694717.3081	9338312.034	-10.6
694670.2248	9338256.55	-10.6
694675.952	9338214.074	-10.6
694673.3731	9338171.624	-10.6
694694.7541	9338134.954	-10.6
694729.3146	9338094.337	-10.6
694768.3654	9338082.744	-10.6
700779.4089	9357218.159	-10.6
700774.0882	9357388.013	-10.6
700782.2087	9357481.69	-10.6
700809.7608	9357538.213	-10.6
700868.5813	9357590.733	-10.6
700944.9348	9357623.674	-10.6
701091.5765	9357627.108	-10.6
701218.6301	9357618.892	-10.6
701292.8032	9357581.563	-10.6
701357.1381	9357524.744	-10.6
701409.7364	9357466.01	-10.6
701429.0045	9357378.102	-10.6
701422.7501	9357257.088	-10.6
701410.5866	9357122.429	-10.6
701373.2021	9357048.368	-10.6
701318.279	9356991.932	-10.6
701228.2656	9356966.844	-10.6
701073.8554	9356979.053	-10.6
700966.4099	9357004.776	-10.6
700907.8591	9357036.198	-10.6
700849.3207	9357071.524	-10.6
700802.5939	9357132.191	-10.6
700779.3369	9357195.71	-10.6
700775.9907	9357219.146	-10.6
680586.0758	9349629.927	-10.6
680574.7012	9349750.982	-10.6
680596.5381	9349866.084	-10.6
680630.8579	9349905.023	-10.6
680705.2219	9349935.061	-10.6
680781.4951	9349949.478	-10.6
680915.3929	9349951.039	-10.6
680982.742	9349921.563	-10.6
681041.3066	9349896.016	-10.6
681122.2496	9349836.244	-10.6
681156.307	9349785.393	-10.6
681200.9891	9349691.568	-10.6
681216.4518	9349631.988	-10.6
681206.37	9349526.612	-10.6
681171.9641	9349458.394	-10.6
681124.9248	9349414.612	-10.6
681075.0079	9349389.383	-10.6
681006.5479	9349372.991	-10.6
680892.2031	9349373.326	-10.6
680764.1933	9349379.556	-10.6
680682.2394	9349427.618	-10.6
680625.7267	9349486.342	-10.6
680599.5246	9349549.857	-10.6
680592.8316	9349600.628	-10.6
680589.2564	9349631.382	-10.6
656232.4336	9403059.023	-10.6
656244.5405	9403219.037	-10.6
656281.859	9403285.309	-10.6
656381.7981	9403363.147	-10.6
656505.2327	9403450.688	-10.6
656624.6015	9403471.88	-10.6
656728.2541	9403463.833	-10.6
656800.5374	9403424.63	-10.6
656911.8281	9403336.544	-10.6
656948.816	9403260.34	-10.6
656974.004	9403156.84	-10.6
656991.3586	9403049.454	-10.6
656983.3118	9402953.838	-10.6
656940.0564	9402858.304	-10.6
656883.1634	9402786.223	-10.6
656777.4015	9402727.917	-10.6
656611.1525	9402734.158	-10.6
656482.1044	9402755.927	-10.6
656390.2933	9402808.837	-10.6
656302.4122	9402869.544	-10.6
656230.2516	9402961.442	-10.6
656227.4916	9403036.59	-10.6
656230.0033	9403065.372	-10.6
650475.6627	9402097.733	-10.6
650452.5442	9402255.871	-10.6
650476.3297	9402396.339	-10.6
650503.8703	9402466.538	-10.6
650545.0853	9402528.9	-10.6
650625.3938	9402579.465	-10.6
650699.7735	9402602.718	-10.6
650905.1647	9402608.114	-10.6
651045.9256	9402576.572	-10.6
651127.9806	9402533.451	-10.6
651202.1197	9402449.362	-10.6
651246.9496	9402379	-10.6
651305.4142	9402283.236	-10.6
651356.0284	9402175.78	-10.6
651379.2325	9402056.674	-10.6
651349.6122	9401931.833	-10.6
651292.7181	9401855.845	-10.6
651210.379	9401772.107	-10.6
651085.1581	9401754.823	-10.6
650934.5449	9401753.21	-10.6
650809.3941	9401767.152	-10.6
650684.2959	9401804.514	-10.6
650598.3385	9401851.547	-10.6
650541.7684	9401919.982	-10.6
650479.3958	9402017.706	-10.6
650468.2962	9402083.6	-10.6
650470.7826	9402102.135	-10.6
653983.0794	9394168.296	-10.6
653985.4376	9394341.993	-10.6
654014.9821	9394431.703	-10.6
654079.6716	9394495.96	-10.6
654189.3532	9394564.016	-10.6
654320.5258	9394622.263	-10.6
654478.9845	9394639.46	-10.6
654592.3923	9394627.487	-10.6
654637.2709	9394582.493	-10.6
654656.6561	9394508.282	-10.6
654652.5948	9394443.885	-10.6
654626.9746	9394360.021	-10.6
654583.8115	9394301.57	-10.6
654528.9275	9394249.001	-10.6
654454.436	9394175.009	-10.6
654364.3848	9394138.135	-10.6
654270.4766	9394124.691	-10.6
654211.7947	9394120.924	-10.6
654147.2003	9394097.653	-10.6
654070.9438	9394105.637	-10.6
654008.4274	9394135.058	-10.6
653990.8618	9394150.712	-10.6
653980.6291	9394165.862	-10.6
659290.4702	9395745.978	-10.6
659257.4541	9395843.645	-10.6
659259.5382	9395897.313	-10.6
659317.3454	9395943.041	-10.6
659385.8259	9395953.612	-10.6
659445.4607	9395945.662	-10.6
659520.6583	9395902.544	-10.6
659572.3599	9395848.747	-10.6
659615.2367	9395785.212	-10.6
659639.5399	9395724.649	-10.6
659623.7786	9395676.869	-10.6
659609.0255	9395641.773	-10.6
659570.8141	9395611.612	-10.6
659509.1513	9395589.315	-10.6
659448.5669	9395608.977	-10.6
659388.986	9395639.372	-10.6
659328.4389	9395674.648	-10.6
659300.1865	9395719.606	-10.6
659288.0254	9395745.984	-10.6
669178.9498	9374453.176	-10.6
669303.1055	9374450.898	-10.6
669399.9412	9374469.185	-10.6
669498.7785	9374505.034	-10.6
669564.4248	9374559.513	-10.6
669599.7821	9374620.903	-10.6
669614.6628	9374702.842	-10.6
669599.3032	9374810.234	-10.6
669538.058	9374942.145	-10.6
669445.4275	9375036.077	-10.6
669299.8648	9375077.449	-10.6
669166.8705	9375065.111	-10.6
669071.8588	9374997.046	-10.6
669003.1671	9374899.634	-10.6
668981.3566	9374784.533	-10.6
668988.8781	9374670.33	-10.6
669025.7519	9374564.834	-10.6
669095.9603	9374495.359	-10.6
669146.7151	9374463.752	-10.6
669182.3626	9374449.751	-10.6
668794.0356	9376987.921	-10.6
668803.1177	9377096.225	-10.6
668813.0041	9377138.164	-10.6
668868.885	9377196.573	-10.6
668911.9848	9377227.69	-10.6
669037.1694	9377242.977	-10.6
669136.9087	9377248.572	-10.6
669296.2461	9377238.396	-10.6
669342.1488	9377219.733	-10.6
669380.1968	9377188.404	-10.6
669418.2549	9377160.978	-10.6
669456.2414	9377106.227	-10.6
669495.1722	9377038.786	-10.6
669494.9521	9376954.857	-10.6
669487.8958	9376873.874	-10.6
669455.4685	9376811.5	-10.6
669419.1176	9376744.257	-10.6
669352.4844	9376686.852	-10.6
669252.7203	9376671.499	-10.6
669085.5782	9376687.551	-10.6
668974.2047	9376719.072	-10.6
668910.7603	9376759.251	-10.6
668859.1143	9376824.773	-10.6
668813.2909	9376873.688	-10.6
668794.3893	9376936.197	-10.6
668791.1115	9376991.345	-10.6
668770.4317	9384372.032	-10.6
668721.0419	9384367.768	-10.6
668686.3	9384356.147	-10.6
668654.9201	9384321.095	-10.6
668633.8145	9384288.944	-10.6
668622.4567	9384245.057	-10.6
668619.7983	9384162.111	-10.6
668611.7796	9384086.01	-10.6
668621.8261	9384000.591	-10.6
668640.7003	9383925.885	-10.6
668681.1486	9383875.521	-10.6
668735.2985	9383830.001	-10.6
668800.7369	9383801.53	-10.6
668942.8341	9383735.288	-10.6
669057.6543	9383708.153	-10.6
669169.1279	9383710.305	-10.6
669243.485	9383727.679	-10.6
669330.0847	9383752.828	-10.6
669382.4974	9383791.729	-10.6
669446.1915	9383844.752	-10.6
669515.8068	9383918.741	-10.6
669575.1934	9384007.396	-10.6
669613.5197	9384081.466	-10.6
669645.0369	9384169.218	-10.6
669656.4854	9384247.75	-10.6
669658.2749	9384372.175	-10.6
669659.226	9384456.102	-10.6
642278.8108	9358007.827	-10.6
642523.1667	9358021.909	-10.6
642702.9527	9358005.887	-10.6
642897.3692	9357977.145	-10.6
643045.7728	9357913.378	-10.6
643158.0253	9357853.596	-10.6
643306.3414	9357751.771	-10.6
643424.321	9357632.45	-10.6
643525.7018	9357519.997	-10.6
643548.043	9357460.42	-10.6
643538.0309	9357356.029	-10.6
643477.2448	9357271.271	-10.6
643371.5084	9357188.568	-10.6
643254.0203	9357095.157	-10.6
643154.3223	9357088.554	-10.6
643054.6232	9357081.464	-10.6
680687.9022	9342505.241	-10.6
680832.6482	9342545.805	-10.6
680953.9649	9342594.246	-10.6
681059.6581	9342646.637	-10.6
681110.6861	9342718.708	-10.6
681101.1277	9342790.96	-10.6
681060.3103	9342867.207	-10.6
680964.8098	9342957.28	-10.6
680849.7073	9343027.891	-10.6
680750.1592	9343071.128	-10.6
680658.3192	9343077.254	-10.6
680558.5811	9343056.077	-10.6
680449.0769	9343036.88	-10.6
680394.2903	9343015.57	-10.6
680267.1047	9342965.193	-10.6
680184.928	9342934.203	-10.6
680104.6484	9342883.689	-10.6
680057.542	9342815.509	-10.6
680051.5296	9342764.775	-10.6
680067.5012	9342713.001	-10.6
680110.8271	9342658.707	-10.6
680169.8569	9342627.79	-10.6
680246.5078	9342607.557	-10.6
680323.1817	9342595.131	-10.6
680414.4286	9342553.871	-10.6
680471.0657	9342540.041	-10.6
680507.699	9342536.029	-10.6
680590.7087	9342518.216	-10.6
680651.7157	9342495.1	-10.6
680674.1984	9342497.474	-10.6
680698.1667	9342506.553	-10.6
670319.6094	9370029.578	-10.6
670116.2933	9370037.927	-10.6
669940.417	9370071.576	-10.6
669748.8061	9370070.134	-10.6
669600.2192	9370072.48	-10.6
669463.265	9370037.71	-10.6
669359.4244	9369956.008	-10.6
669314.2438	9369876.102	-10.6
669304.2612	9369798.054	-10.6
669311.8075	9369694.586	-10.6
669354.6499	9369630.061	-10.6
669459.9635	9369530.238	-10.6
669528.2431	9369473.453	-10.6
669658.9366	9369359.898	-10.6
669830.8849	9369320.404	-10.6
670002.9058	9369308.234	-10.6
670092.8578	9369313.85	-10.6
670262.9706	9369319.252	-10.6
670397.865	9369314.989	-10.6
670589.5368	9369339.851	-10.6
670722.5284	9369355.11	-10.6
670853.6433	9369399.652	-10.6
670953.4448	9369432.567	-10.6
671059.1484	9369479.128	-10.6
671184.4823	9369554.915	-10.6
671282.4705	9369640.535	-10.6
671357.0703	9369753.543	-10.6
671349.5009	9369847.253	-10.6
671265.6433	9369927.504	-10.6
671158.1719	9369951.214	-10.6
671038.9798	9369978.86	-10.6
670933.5366	9370029.89	-10.6
670800.5904	9370032.198	-10.6
670634.396	9370030.69	-10.6
670487.7639	9370033.033	-10.6
670382.1538	9370021.604	-10.6
670327.4027	9370019.31	-10.6
670299.5559	9370024.752	-10.6
661873.0726	9424078.06	-10.6
661719.4757	9424079.391	-10.6
661631.4748	9424101.064	-10.6
661555.2366	9424132.468	-10.6
661483.89	9424163.861	-10.6
661425.318	9424219.621	-10.6
661373.6101	9424282.197	-10.6
661336.5952	9424352.545	-10.6
661311.3653	9424442.384	-10.6
661308.7002	9424559.495	-10.6
661318.83	9424709.757	-10.6
661338.5397	9424771.679	-10.6
661364.0903	9424820.902	-10.6
661394.0165	9424858.405	-10.6
661432.2677	9424899.791	-10.6
661482.7292	9424932.855	-10.6
661532.697	9424963.968	-10.6
661619.8355	9424992.067	-10.6
661673.2041	9425012.925	-10.6
661713.8384	9425026.982	-10.6
661791.171	9425045.345	-10.6
661841.0974	9425058.404	-10.6
661943.324	9425053.288	-10.6
662000.0459	9425043.398	-10.6
662076.7936	9425020.287	-10.6
662146.6578	9424982.066	-10.6
662213.0773	9424935.07	-10.6
662249.6536	9424886.68	-10.6
662286.7281	9424842.191	-10.6
662309.6289	9424803.103	-10.6
662337.8291	9424728.871	-10.6
662352.3867	9424678.091	-10.6
662349.1087	9424530.253	-10.6
662337.5997	9424419.029	-10.6
662325.7214	9424359.528	-10.6
662301.6388	9424310.79	-10.6
662281.4899	9424270.826	-10.6
662247.6397	9424228.941	-10.6
662207.9365	9424194.39	-10.6
662155.5364	9424169.138	-10.6
662073.2811	9424137.125	-10.6
662016.9564	9424107.003	-10.6
661942.0772	9424091.563	-10.6
661869.6552	9424080.996	-10.6
662399.7274	9424314.71	-10.6
662372.7074	9424265.003	-10.6
662356.9101	9424203.071	-10.6
662344.0455	9424140.157	-10.6
662342.4059	9424065.993	-10.6
662348.5521	9423974.246	-10.6
662366.5097	9423913.212	-10.6
662398.1743	9423856.538	-10.6
662452.319	9423790.54	-10.6
662523.5992	9423730.845	-10.6
662612.9535	9423660.374	-10.6
662709.2674	9423637.705	-10.6
662813.0325	9423663.812	-10.6
662903.176	9423722.155	-10.6
662972.7564	9423772.738	-10.6
663025.696	9423819.457	-10.6
663063.9833	9423875.969	-10.6
663087.6046	9423936.419	-10.6
663094.6305	9424012.521	-10.6
663095.8661	9424122.793	-10.6
663063.8332	9424231.191	-10.6
663040.4894	9424289.798	-10.6
662968.3622	9424406.096	-10.6
662905.8775	9424461.867	-10.6
662831.5593	9424477.654	-10.6
662717.0925	9424477.921	-10.6
662613.3264	9424451.813	-10.6
662534.0214	9424426.624	-10.6
662458.6048	9424390.692	-10.6
662432.1102	9424356.598	-10.6
662408.5784	9424334.451	-10.6
662396.9087	9424312.155	-10.6
661293.8267	9423572.187	-10.6
661294.4191	9423828.841	-10.6
661323.9177	9423893.181	-10.6
661364.1353	9423938.954	-10.6
661461.0717	9423973.862	-10.6
661579.491	9423991.154	-10.6
661710.5701	9423983.044	-10.6
661774.1168	9423963.379	-10.6
661842.5169	9423927.114	-10.6
661902.0486	9423863.544	-10.6
661915.6345	9423815.694	-10.6
661933.0659	9423738.559	-10.6
661934.7038	9423600.957	-10.6
661915.9775	9423541.471	-10.6
661889.4314	9423484.932	-10.6
661842.311	9423415.754	-10.6
661773.6945	9423358.336	-10.6
661704.1767	9423334.1	-10.6
661617.101	9423332.35	-10.6
661532.9761	9423337.424	-10.6
661460.6656	9423374.674	-10.6
661397.1465	9423406.049	-10.6
661348.8195	9423449.587	-10.6
661328.8618	9423492.084	-10.6
661298.6688	9423550.706	-10.6
661295.0533	9423573.77	-10.6
698670.9411	9328210.708	-10.6
698673.1317	9328429.341	-10.6
698676.7747	9328496.677	-10.6
698694.9877	9328538.1	-10.6
698732.3115	9328597.029	-10.6
698786.7031	9328646.628	-10.6
698846.4346	9328685.961	-10.6
698910.5062	9328708.198	-10.6
699020.4202	9328706.369	-10.6
699077.0085	9328681.779	-10.6
699117.9281	9328646.504	-10.6
699146.594	9328599.07	-10.6
699180.5314	9328520.871	-10.6
699192.9882	9328447.136	-10.6
699195.6224	9328357.817	-10.6
699175.8413	9328285.653	-10.6
699136.0971	9328233.565	-10.6
699068.9341	9328163.023	-10.6
699001.4059	9328129.573	-10.6
698929.0412	9328110.78	-10.6
698849.3682	9328097.868	-10.6
698795.663	9328107.807	-10.6
698736.1539	9328135.334	-10.6
698702.8871	9328158.016	-10.6
698683.4328	9328184.191	-10.6
698670.2696	9328210.771	-10.6
712432.4682	9328738.003	-10.6
712424.2534	9328901.536	-10.6
712450.0131	9329001.499	-10.6
712502.1018	9329086.238	-10.6
712566.8	9329144.577	-10.6
712671.4396	9329168.61	-10.6
712768.1307	9329155.577	-10.6
712871.589	9329122.021	-10.6
712926.0242	9329041.785	-10.6
712980.3588	9328933.24	-10.6
712992.6385	9328814.107	-10.6
712969.7519	9328698.027	-10.6
712905.9094	9328605.521	-10.6
712790.4216	9328553.219	-10.6
712686.8293	9328548.706	-10.6
712592.1039	9328564.66	-10.6
712511.1827	9328615.707	-10.6
712454.2304	9328674.965	-10.6
712433.1993	9328737.512	-10.6
714297.4083	9329801.167	-10.7
691258.4604	9335019.752	-10.7
702003.3278	9327674.595	-10.7
713340.48	9329688.361	-10.8
700082.579	9327891.938	-10.8
700965.7014	9327871.765	-10.8
702916.1894	9327529.476	-10.8
705290.2371	9328208.946	-10.8
704951.9572	9326929.661	-10.8
692848.8368	9333007.85	-10.8
716219.8106	9330983.325	-10.8
716742.1105	9331455.995	-10.9
698273.0118	9328182.013	-10.9
659323.7195	9341572.238	-10.9
700479.1685	9355219.523	-11
677171.8945	9344204.441	-11
710258.6777	9328750.173	-11
692658.401	9337623.376	-11
690867.2953	9335309.335	-11
690382.4208	9335943.504	-11
693553.409	9333198.422	-11
700227.315	9355212.732	-11
692713.0571	9337575.353	-11
704999.2997	9343778.587	-11.1
720511.699	9345528.296	-11.1
715799.464	9330531.815	-11.1
696236.6326	9328937.584	-11.1
696912.1559	9328672.836	-11.1
704968.7815	9343731.61	-11.1
691179.6226	9345979.46	-11.3
717333.7443	9333016.317	-11.3
691548.1252	9335333.007	-11.3
705656.6813	9328276.553	-11.3
677094.2718	9368381.474	-11.3
691157.0005	9346057.783	-11.3
679245.2905	9348176.962	-11.4
721887.7581	9347051.399	-11.4
710922.8951	9328950.134	-11.4
670576.6451	9342854.416	-11.4
673243.7758	9338311.201	-11.4
685801.1495	9341169.374	-11.4
692553.7005	9335859.177	-11.4
691598.5335	9334923.995	-11.4
697059.914	9335651.017	-11.4
704211.2583	9328286.878	-11.4
714906.7135	9330298.28	-11.5
709578.7227	9328976.368	-11.5
695297.8858	9329074.067	-11.5
703728.3043	9328163.706	-11.5
663370.1673	9398238.805	-11.5
722794.5943	9347525.916	-11.6
680464.019	9336590.327	-11.6
682037.3175	9336826.623	-11.6
681643.8049	9336345.808	-11.6
679652.9045	9336209.725	-11.6
684933.3827	9342037.025	-11.6
692832.5964	9334141.097	-11.6
674958.3959	9337513.394	-11.6
676551.6983	9337233.366	-11.6
678792.1619	9336527.498	-11.6
693021.0488	9332442.667	-11.6
694984.6483	9329462.428	-11.6
694395.4513	9331112.687	-11.6
651923.624	9341803.297	-11.6
684851.8589	9342078.388	-11.6
682005.8885	9336875.684	-11.6
704013.8484	9328718.131	-11.6
729614.2939	9348233.459	-11.6
656418.9319	9340911.481	-11.6
717439.7731	9334939.951	-11.7
713708.6724	9330237.99	-11.7
671748.7191	9339825.907	-11.7
691156.4493	9336827.631	-11.7
693936.3618	9333042.257	-11.7
701565.7306	9328222.67	-11.7
702267.5248	9328086.882	-11.7
705968.2131	9328662.846	-11.7
712261.9305	9329296.2	-11.8
718215.5711	9336777.248	-11.8
690107.9148	9336340.305	-11.8
699213.5725	9328269.274	-11.8
697917.819	9328579.143	-11.8
717381.899	9334423.645	-11.9
690826.3793	9335998.056	-12
700147.6174	9328451.159	-12
672559.2789	9338502.494	-12.1
700170.5694	9328438.24	-12.1
700669.9209	9328316.06	-12.1
701182.8032	9328374.595	-12.1
703165.029	9328492.722	-12.1
705758.3585	9329029.409	-12.1
694360.58	9332322.161	-12.2
670836.4029	9394639.369	-12.2
670246.5621	9378756.478	-12.2
716087.3961	9331520.76	-12.3
710287.0484	9329468.863	-12.3
708999.1338	9329568.052	-12.3
710076.2924	9329562.085	-12.3
695326.2702	9329852.963	-12.4
695846.3729	9329485.444	-12.4
716929.6221	9332075.135	-12.5
683269.4122	9338208.655	-12.5
701657.2756	9328540.854	-12.5
704286.304	9328816.013	-12.5
699671.5246	9354705.649	-12.6
720016.3217	9340203.457	-12.6
719775.7914	9339231.545	-12.6
716614.8279	9332007.399	-12.6
708529.1487	9329466.388	-12.6
707939.3197	9329593.253	-12.6
682148.8361	9338095.827	-12.6
688275.1891	9342805.788	-12.6
688697.9095	9342946.507	-12.6
690385.6901	9336984.987	-12.6
691363.9731	9335686.494	-12.6
692147.2045	9335391.361	-12.6
692691.9939	9334636.476	-12.6
693912.2118	9333571.698	-12.6
696061.9531	9356464.168	-12.6
696038.8307	9356515.366	-12.6
644158.2337	9346192.717	-12.6
667810.1886	9343409.92	-12.6
719686.2655	9339299.499	-12.6
688424.6994	9342718.91	-12.6
732347.3877	9348548.459	-12.6
695334.928	9331191.416	-12.7
699652.5898	9328788.584	-12.7
708582.5896	9329456.648	-12.7
695328.3569	9331185.756	-12.7
709790.7685	9341052.956	-12.8
719695.6152	9341500.216	-12.8
715788.3295	9331031.148	-12.8
703678.6529	9328766.433	-12.8
697190.7601	9327584.124	-12.8
716133.2485	9332291.058	-12.9
693298.6838	9334380.619	-12.9
696781.2429	9329478.083	-12.9
702326.6124	9328999.121	-12.9
716206.8171	9332401.58	-12.9
711503.2653	9329807.845	-13
686112.4459	9342932.9	-13
697417.2901	9328998.267	-13
698201.272	9328961.25	-13
714252.4692	9330490.002	-13.1
712909.4134	9330847.717	-13.1
712317.681	9330440.913	-13.1
694914.7612	9331825.436	-13.1
696339.5081	9330094.976	-13.1
700157.4018	9329010.703	-13.1
706358.943	9329526.614	-13.1
674812.5816	9361099.56	-13.1
690151.1996	9355574.61	-13.2
719766.8577	9344540.967	-13.2
670275.7921	9343126.36	-13.2
672113.5907	9339347.209	-13.2
673894.1601	9338244.795	-13.2
679625.0779	9336997.343	-13.2
689576.9448	9337396.367	-13.2
674235.479	9337825.315	-13.2
677346.6402	9337246.111	-13.2
678233.8308	9337127.32	-13.2
677278.4818	9337404.469	-13.2
714264.7778	9330475.435	-13.2
690084.003	9355649.548	-13.2
709215.9371	9349422.06	-13.4
690673.3682	9336665.61	-13.4
692053.849	9335843.548	-13.4
695806.7984	9330561.526	-13.4
694509.7857	9333165.221	-13.4
694834.322	9332264.682	-13.4
698946.6818	9328984.605	-13.4
705144.2459	9329612.554	-13.4
709190.383	9349456.564	-13.4
694721.2706	9332185.779	-13.4
680841.4538	9342542.274	-13.5
709758.5744	9329892.516	-13.5
704559.1098	9329219.659	-13.5
680124.8465	9340627.188	-13.6
715464.253	9331979.243	-13.6
716498.9702	9332741.693	-13.6
707354.3186	9329870.737	-13.6
689817.0095	9339766.941	-13.6
691813.8349	9336244.555	-13.6
692128.0849	9334797.508	-13.6
693317.1009	9334750.682	-13.6
693849.3042	9334107.718	-13.6
704003.4028	9329243.071	-13.6
659477.3424	9440985.086	-13.6
689880.2568	9339679.684	-13.6
699701.872	9329356.534	-13.7
663109.5306	9343928.338	-13.7
717442.2773	9335637.237	-13.8
717167.3218	9333468.866	-13.8
715087.1567	9331356.477	-13.8
674586.5179	9339292.834	-13.8
692676.4592	9335170.189	-13.8
697574.7523	9329716.491	-13.8
701930.8708	9329185.524	-13.8
717033.9091	9333563.892	-13.8
705699.424	9329747.307	-13.9
674507.2875	9338707.803	-13.9
697227.0976	9330117.891	-13.9
690584.9142	9337311.442	-14
696046.6158	9331438.723	-14
694472.798	9333720.527	-14
700219.556	9329561.396	-14
700951.0044	9329270.589	-14
701329.1243	9328968.046	-14
709264.2023	9330212.744	-14.1
711572.6207	9331150.498	-14.1
702957.389	9329517.769	-14.1
703352.5484	9329159.202	-14.1
673961.9203	9387723.58	-14.1
696587.9086	9330959.233	-14.2
719318.6558	9342138.609	-14.3
705149.767	9330282.886	-14.3
694352.9196	9328620.936	-14.3
675299.7915	9343491.153	-14.4
719488.528	9340838.094	-14.4
714189.4086	9331536.151	-14.4
707872.5591	9330221.879	-14.4
672123.812	9339915.219	-14.4
672956.5203	9338806.903	-14.4
693495.7737	9335382.763	-14.4
693811.8661	9334525.304	-14.4
704360.5289	9329736.816	-14.4
672231.3362	9339965.796	-14.4
715825.8344	9332279.047	-14.4
718763.1152	9338047.201	-14.5
706277.7023	9330020.782	-14.5
710234.4275	9330437.476	-14.5
698346.3313	9329834.455	-14.5
718660.2675	9338183.064	-14.5
698361.7394	9329766.787	-14.5
713923.4104	9331253.019	-14.6
714639.0695	9331969.276	-14.6
673673.9783	9339596.678	-14.6
682073.5663	9337420.4	-14.6
689962.5943	9338092.358	-14.6
693518.8428	9335860.406	-14.6
694047.9349	9328897.365	-14.6
699052.464	9329703.002	-14.6
702363.2417	9329640.286	-14.6
703707.7764	9329730.426	-14.6
648334.486	9345695.156	-14.6
672215.882	9340478.695	-14.7
689934.0985	9340007.582	-14.7
695864.5473	9332420.584	-14.7
675340.3669	9382084.447	-14.7
712557.2425	9331171.777	-14.8
715729.4791	9332645.453	-14.8
672282.2103	9341080.974	-14.8
673624.5483	9338882.462	-14.8
675378.4017	9338985.019	-14.8
694384.3895	9334364.226	-14.8
696255.6331	9332118.045	-14.8
697402.5101	9331055.553	-14.8
675456.7726	9339053.465	-14.8
673594.6684	9365559.825	-14.8
672887.5749	9340321.876	-14.9
672893.4579	9339357.91	-14.9
696961.0735	9331767.132	-14.9
672814.9761	9347812.298	-15
716872.4447	9334150.001	-15
674583.9478	9339899.617	-15
675686.4755	9338243.946	-15
676577.9864	9338125.172	-15
677314.5436	9338058.477	-15
678271.1488	9338098.714	-15
679273.6931	9337643.902	-15
680235.0567	9337834.714	-15
681156.6275	9337681.352	-15
697843.7788	9330296.625	-15
699454.208	9330024.46	-15
703284.6562	9330103.078	-15
684225.1601	9348706.439	-15
667607.9795	9388420.786	-15
672814.0293	9347803.252	-15
679186.885	9337588.53	-15
673990.3504	9368010.713	-15
710129.3144	9331182.456	-15.1
672912.096	9339852.742	-15.1
695440.0222	9333041.709	-15.1
698796.0462	9330332.217	-15.1
706534.6254	9330498.724	-15.1
715024.0123	9332376.806	-15.2
713596.0219	9331882.595	-15.2
707528.9178	9330524.351	-15.2
691183.9275	9337343.989	-15.2
692925.3227	9336197.99	-15.2
694101.7945	9334916.016	-15.2
688468.6098	9339505.913	-15.2
719400.8859	9343438.219	-15.3
705770.3643	9330332.412	-15.3
716304.2392	9333713.003	-15.3
671494.286	9341276.841	-15.3
672988.013	9340794.958	-15.3
675635.0103	9337580.296	-15.3
672884.8733	9340849.008	-15.3
705692.3455	9330396.989	-15.3
690511.5327	9344823.551	-15.4
714268.149	9332474.19	-15.4
708638.2311	9331101.563	-15.4
709274.7974	9330780.849	-15.4
707086.1025	9330805.642	-15.4
691738.7147	9337015.157	-15.4
695979.0135	9333173.379	-15.4
700867.3009	9330006.839	-15.4
710997.7406	9325434.458	-15.4
700735.978	9329998.256	-15.4
718732.1529	9339024.39	-15.5
704958.4244	9331028.132	-15.5
701897.3839	9330117.44	-15.5
704007.1025	9330331.968	-15.5
677251.5352	9341944.917	-15.6
709638.2647	9331222.906	-15.6
716258.3196	9334126.376	-15.6
690526.361	9337875.409	-15.6
698439.59	9331983.928	-15.6
697058.1737	9332474.796	-15.6
694488.6767	9329300.493	-15.6
700096.5798	9330151.441	-15.6
681139.3888	9342666.871	-15.6
675054.1599	9379962.883	-15.6
709547.1269	9331196.629	-15.6
721015.9749	9346731.704	-15.7
716737.0555	9334847.778	-15.7
715381.8283	9333029.773	-15.7
685882.4625	9340279.359	-15.7
693988.0005	9335708.274	-15.7
700018.551	9331302.994	-15.7
698105.6379	9331315.777	-15.7
699650.6992	9330811.42	-15.7
673716.3558	9383840.839	-15.7
698190.6839	9331361.559	-15.7
691868.2381	9345012.327	-15.8
718829.2306	9340857.678	-15.8
708111.5546	9330806.406	-15.8
706138.2094	9330804.595	-15.8
712102.6035	9332376.395	-15.8
713447.155	9332430.832	-15.8
671500.0316	9341788.919	-15.8
673779.0505	9340181.635	-15.8
699143.685	9331228.425	-15.8
671676.3658	9341972.286	-15.8
723529.4472	9348112.962	-15.9
704005.1781	9336456.541	-15.9
715593.0924	9333668.199	-15.9
715006.1113	9333399.124	-15.9
708260.1402	9328925.008	-15.9
674656.4562	9341147.388	-15.9
682878.8713	9338721.952	-15.9
684205.7575	9338662.003	-15.9
694893.31	9334521.828	-15.9
701285.8897	9330207.723	-15.9
682780.2172	9338788.065	-15.9
703941.0705	9336608.343	-15.9
694855.3781	9334515.647	-15.9
718794.8187	9339674.116	-16
717619.0964	9337478.836	-16
711144.354	9331893.391	-16
705466.0067	9330785.375	-16
703955.1633	9330897.042	-16
703445.9763	9330666.352	-16
675328.4218	9339583.333	-16
678188.9103	9339441.629	-16
688134.4362	9339079.272	-16
689170.2065	9339614.02	-16
703324.4436	9330730.219	-16
720224.1996	9345882.281	-16.1
697694.3855	9332033.72	-16.1
695774.1185	9333763.665	-16.1
714640.7458	9333045.326	-16.2
716494.4794	9335096.142	-16.2
708319.8864	9331244.701	-16.2
701046.1898	9330677.653	-16.2
706110.1877	9331428.776	-16.3
716126.6793	9334669.183	-16.3
712776.3376	9332817.352	-16.3
692389.4741	9337060.439	-16.3
716115.6537	9334723.43	-16.3
712708.9579	9332892.773	-16.3
707765.1317	9331552.208	-16.4
715543.3351	9334215.015	-16.4
714856.9532	9333864.512	-16.4
672326.9951	9341683.314	-16.4
696703.3933	9333341.023	-16.4
698036.2936	9332501.717	-16.4
700331.3969	9330800.548	-16.4
702413.585	9330515.97	-16.4
706666.1069	9331146.031	-16.4
717786.21	9338416.572	-16.5
707096.3643	9331283.357	-16.5
714226.6885	9333539.63	-16.5
713605.9027	9333455.745	-16.5
703482.5551	9331290.305	-16.5
674598.6966	9340536.474	-16.5
678664.8258	9338644.097	-16.5
697658.7562	9332993.595	-16.5
699461.3923	9332191.443	-16.5
706843.733	9331278.245	-16.5
684111.8698	9343490.435	-16.6
684216.499	9343336.066	-16.6
718881.9977	9342957.991	-16.6
718614.5716	9341689.177	-16.6
716879.377	9336687.344	-16.6
708697.6722	9334583.364	-16.6
709645.211	9331980.406	-16.6
708088.8881	9331727.557	-16.6
681111.2707	9336919.767	-16.6
688046.8348	9340013.431	-16.6
691082.2789	9337903.79	-16.6
678214.5848	9364639.363	-16.6
716828.2002	9336726.248	-16.6
709027.6651	9331577.966	-16.7
705859.6723	9331248.864	-16.7
715035.6565	9334436.339	-16.7
671626.382	9342287.749	-16.7
660053.9576	9344207.31	-16.7
699857.933	9355040.753	-16.8
679630.8174	9342962.199	-16.8
710814.39	9332411.043	-16.8
707430.4089	9331945.032	-16.8
712092.4922	9333177.005	-16.8
702905.3324	9331326.685	-16.8
681547.6563	9338773.276	-16.8
685624.4696	9339040.712	-16.8
685868.606	9338562.268	-16.8
694804.2856	9334974.012	-16.8
701822.9829	9331055.949	-16.8
660663.9467	9423147.173	-16.8
679546.3496	9342979.278	-16.8
710627.8436	9332529.726	-16.8
706516.9208	9331930.954	-16.9
705154.2444	9331595.594	-16.9
714405.3242	9334094.24	-16.9
711354.6736	9332891.216	-16.9
695763.5698	9334497.498	-16.9
700238.3645	9332623.561	-16.9
700678.0289	9331386.876	-16.9
700080.7713	9331875.205	-16.9
700000.8022	9331879.45	-16.9
702409.8707	9331332.658	-17
704384.5542	9331734.863	-17
696426.5253	9335648.771	-17
696981.2575	9333989.995	-17
709037.7767	9435955.952	-17
704313.6107	9331783.682	-17
680574.5035	9341150.885	-17.1
704777.5346	9332315.644	-17.1
715653.8527	9334997.993	-17.1
686300.7104	9338965.485	-17.1
691758.1914	9337725.209	-17.1
698834.1718	9332744.412	-17.1
701217.8806	9331772.427	-17.1
668374.5164	9383876.271	-17.1
718263.6126	9342370.509	-17.2
708987.2066	9332335.628	-17.2
713592.2274	9334462.976	-17.2
703554.1755	9332084.146	-17.2
693856.4707	9336345.652	-17.2
697475.6589	9333656.986	-17.2
700577.0917	9332127.485	-17.2
675983.4087	9342972.787	-17.3
719744.2772	9345457.869	-17.3
709944.1451	9332448.513	-17.3
677074.1814	9339853.704	-17.3
689200.1691	9338163.594	-17.3
695516.0094	9335221.337	-17.3
696180.8451	9334293.866	-17.3
698241.4509	9333310.168	-17.3
719771.9362	9345527.66	-17.3
710598.952	9337363.695	-17.4
708073.898	9332377.524	-17.4
714938.2934	9334927.367	-17.4
712724.5086	9334005.487	-17.4
708581.0805	9333262.413	-17.4
677855.0389	9338719.627	-17.4
694741.6781	9335602.565	-17.4
695964.8581	9335452.291	-17.4
696316.869	9335050.896	-17.4
701830.6677	9332063.044	-17.4
708433.3764	9333368.369	-17.4
717725.9173	9340840.1	-17.5
715877.0735	9335967.805	-17.5
714256.6159	9334688.748	-17.5
704123.5626	9332275.899	-17.5
673823.558	9340680.698	-17.5
676285.5191	9341280.417	-17.5
676153.0552	9340170.521	-17.5
677961.1565	9341124.938	-17.5
680846.1377	9339037.878	-17.5
680845.9239	9339046.727	-17.5
704908.2914	9348150.927	-17.6
708740.0578	9341280.367	-17.6
717489.1533	9339704.615	-17.6
716937.6953	9338537.971	-17.6
716262.0742	9337593.441	-17.6
708015.667	9337372.597	-17.6
705811	9332135.659	-17.6
702563.1579	9332072.422	-17.6
673105.8568	9341328.239	-17.6
683406.0262	9339219.576	-17.6
684826.9853	9338918.334	-17.6
690752.4251	9338515.95	-17.6
690314.1711	9338913.262	-17.6
689615.3067	9338644.311	-17.6
697315.0396	9334608.659	-17.6
698397.4634	9333585.103	-17.6
704871.7274	9348197.42	-17.6
716879.9305	9338550.767	-17.6
707949.5889	9337317.356	-17.6
697242.8799	9334616.294	-17.6
698198.048	9333601.551	-17.6
680486.8839	9342486.299	-17.7
681667.3501	9340618.313	-17.7
717390.0569	9341525.677	-17.7
714491.1015	9335195.815	-17.7
677751.5583	9341650.567	-17.7
678795.6439	9340644.818	-17.7
668097.5267	9395910.672	-17.7
665124.4243	9363553.173	-17.7
707484.5869	9332663.623	-17.8
712821.2288	9334551.778	-17.8
675399.0916	9340185.604	-17.8
679629.8733	9338619.738	-17.8
688451.4842	9338497.299	-17.8
686572.2622	9341111.077	-17.8
696703.9317	9334830.144	-17.8
699520.5211	9333133.799	-17.8
712850.8374	9334662.741	-17.8
709097.3417	9333032.509	-17.9
706628.1031	9332942.023	-17.9
704255.4735	9333058.778	-17.9
702186.0999	9332697.76	-17.9
675156.6576	9377713.834	-17.9
709020.0212	9333041.159	-17.9
706596.4657	9333004.342	-17.9
697484.5012	9357544.517	-18
681004.4791	9343030.239	-18
708093.1971	9332975.724	-18
705434.9069	9333036.482	-18
692296.0323	9337486.804	-18
701328.5979	9332671.578	-18
668215.7957	9389024.307	-18
697435.0842	9357540.648	-18
701214.9079	9332616.069	-18
675268.6453	9343146.972	-18.1
676458.7181	9341942.906	-18.1
679944.6679	9342724.587	-18.1
710900.9045	9333740.719	-18.1
713342.232	9335664.727	-18.1
711622.2764	9334250.39	-18.1
703186.8448	9333036.562	-18.1
700241.2746	9333500.471	-18.1
679140.7012	9339301.127	-18.1
684182.4831	9339514.179	-18.1
685756.5817	9340683.204	-18.1
693131.1559	9338598.824	-18.1
695479.3154	9335867.025	-18.1
674108.5611	9369891.138	-18.1
708905.9798	9333764.868	-18.2
709938.688	9333356.701	-18.2
698468.2905	9340754.019	-18.2
698366.2191	9335882.39	-18.2
676214.668	9340617.897	-18.2
676148.2764	9338518.028	-18.2
684835.2623	9340226.595	-18.2
694800.0834	9336346.932	-18.2
698501.9179	9340808.349	-18.2
694825.3114	9336412.499	-18.2
710348.8452	9335449.228	-18.3
714727.054	9336116.082	-18.3
669815.439	9395292.213	-18.3
716820.083	9340606.589	-18.4
715341.6289	9336869.295	-18.4
709973.1458	9335213.806	-18.4
708220.852	9333758.625	-18.4
714166.3853	9335980.33	-18.4
712336.0861	9335057.07	-18.4
697955.3464	9334094.408	-18.4
697590.0927	9335713.848	-18.4
674985.4132	9364716.098	-18.4
716733.8952	9340719.249	-18.4
701262.8296	9333621.888	-18.5
698612.2566	9334702.326	-18.5
691446.1352	9338513.771	-18.5
696000.5248	9335822.303	-18.5
699002.9732	9334284.642	-18.5
673662.1385	9344907.313	-18.6
674334.2499	9344879.589	-18.6
674750.3622	9344228.598	-18.6
681641.8008	9342169.803	-18.6
684222.4231	9342487.903	-18.6
719033.3774	9344315.46	-18.6
707384.3584	9333589.341	-18.6
706009.1364	9333378.846	-18.6
680659.3541	9339980.896	-18.6
696890.8936	9336675.877	-18.6
677633.1784	9401548.54	-18.6
732714.6241	9438909.018	-18.6
652785.9016	9344948.275	-18.6
656475.2832	9345011.233	-18.6
673746.4235	9344928.695	-18.6
710924.8071	9334416.385	-18.7
712665.3821	9335572.415	-18.7
678561.1622	9340025.808	-18.7
687933.4564	9338180.433	-18.7
710824.4244	9334444.015	-18.7
678433.3289	9340012.31	-18.7
716113.6299	9339477.078	-18.8
713162.7442	9337316.013	-18.8
699967.9324	9334228.735	-18.8
697863.9191	9335122.251	-18.8
686833.4961	9338477.544	-18.8
686710.9212	9342776.148	-18.8
695536.9662	9336374.687	-18.8
700931.6899	9334459.632	-18.8
679813.0381	9341920.225	-18.9
712527.447	9336788.827	-18.9
693204.7477	9337350.505	-18.9
713125.3852	9338951.733	-19
706211.8351	9334064.647	-19
710273.5843	9336112.324	-19
700851.5913	9334342.011	-19
699190.4658	9334958.657	-19
692036.5183	9338537.733	-19
710179.107	9336108.31	-19
705142.3319	9348546.117	-19.1
685947.8426	9343564.461	-19.1
718021.1971	9343279.578	-19.1
716734.8394	9341480.657	-19.1
710888.4409	9336346.915	-19.1
712671.753	9336159.912	-19.1
704239.6689	9336993.75	-19.1
705277.1857	9333853.705	-19.1
703354.6303	9334241.108	-19.1
679829.7444	9339187.206	-19.1
690857.3871	9339010.546	-19.1
714121.7133	9336753.093	-19.2
712019.8069	9335796.342	-19.2
711713.0144	9336787.37	-19.2
709356.6002	9334486.396	-19.2
710279.7014	9334771.57	-19.2
702318.5748	9333657.096	-19.2
698481.6805	9335615.173	-19.2
676866.2298	9340947.375	-19.2
682213.0084	9339382.388	-19.2
696472.5413	9336552.423	-19.2
671304.0348	9361470.443	-19.2
711887.6622	9335930.736	-19.2
714604.9085	9338133.039	-19.3
715300.2666	9338573.917	-19.3
713517.1861	9336400.128	-19.3
704163.7393	9333962.925	-19.3
692479.5059	9338278.109	-19.3
693150.2941	9337841.305	-19.3
694879.6856	9336983.635	-19.3
679590.3683	9437354.625	-19.3
714545.1487	9338134.49	-19.3
713417.7754	9336440.249	-19.3
674912.4612	9342145.303	-19.4
715810.0875	9340162.528	-19.4
709510.8039	9336089.14	-19.4
701739.5374	9334446.652	-19.4
682718.0751	9339699.336	-19.4
693845.6211	9336995.554	-19.4
695783.3123	9336606.297	-19.4
674986.1419	9342053.218	-19.4
708298.0162	9334894.635	-19.5
679599.7063	9340078.703	-19.5
681490.1702	9339724.522	-19.5
666817.4553	9435380.702	-19.5
671654.1411	9428415.411	-19.5
685160.6662	9342783.024	-19.6
712034.667	9337582.516	-19.6
708703.114	9335536.7	-19.6
699871.7492	9335111.35	-19.6
699631.7251	9335495.188	-19.6
673902.4973	9341166.752	-19.6
680436.5829	9340869.284	-19.6
674039.0668	9346083.869	-19.6
717088.4474	9342757.769	-19.7
704184.497	9334687.001	-19.7
702662.2775	9334645.852	-19.7
702578.581	9335386.412	-19.7
676773.1426	9340048.232	-19.7
686412.069	9342273.538	-19.7
716994.4873	9342791.438	-19.7
704115.3847	9334665.751	-19.7
678592.8146	9343111.551	-19.8
713272.3313	9337845.043	-19.8
706158.6385	9334891.202	-19.8
705029.0162	9334684.144	-19.8
706859.7116	9334518.662	-19.8
